# .PCD v0.7 - Point Cloud Data file format
VERSION 0.7
FIELDS x y z
SIZE 4 4 4
TYPE F F F
COUNT 1 1 1
WIDTH 1315
HEIGHT 1
VIEWPOINT 1.99448 -0.255118 0.138346 0.505635 -0.507035 -0.489638 0.497498
POINTS 1315
DATA ascii
1.7073771 -0.31790894 0.10516371
1.7041721 -0.25816217 0.10601409
1.7306858 0.1704127 0.09089347
1.7398514 0.17336446 0.099728182
1.7306069 0.23030153 0.092760094
1.6708516 -0.31711808 0.14020491
1.7058944 -0.31732157 0.13054702
1.6530473 -0.30883574 0.16123287
1.7173457 -0.26135668 0.1160454
1.682682 -0.25215718 0.13931985
1.7073888 -0.25794429 0.14266509
0.56028271 -0.027664941 0.13165733
0.59148645 -0.012046999 0.13220148
0.55112731 0.012040763 0.12671982
0.55829394 0.063816369 0.12596107
1.7075831 0.17202434 0.13861927
1.7414516 0.17049128 0.12261281
1.6785272 0.22925027 0.15638229
1.7139373 0.23293862 0.13504785
1.7592055 0.20864244 0.16073599
1.6655185 -0.3169111 0.17837356
1.7053478 -0.31668985 0.18211338
1.7736312 -0.31662041 0.20018339
1.7956808 -0.31903434 0.19668835
0.66098607 -0.2630263 0.18664153
1.6622493 -0.28617486 0.190253
1.7001452 -0.28555113 0.19253823
1.756923 -0.28460935 0.18763405
1.793067 -0.29565126 0.19971609
0.66687775 -0.24423987 0.18323112
1.6608927 -0.25650355 0.16678968
1.7092484 -0.25776136 0.16948301
1.7468061 -0.26082167 0.19605443
0.54680204 -0.066207498 0.15226561
0.55672777 -0.022184841 0.14590567
0.61339974 -0.01393403 0.17095122
0.55603695 0.023767317 0.14542653
0.6143322 0.0040635196 0.16727537
0.55345643 0.064672105 0.14513823
1.6681087 0.18387099 0.17618731
1.7105058 0.17673409 0.17606285
1.7668191 0.17813927 0.1830886
1.803857 0.17513976 0.19086358
0.68138349 0.23401956 0.17686735
1.6767452 0.20979193 0.1816093
1.7044291 0.21031368 0.18656316
1.765028 0.20424169 0.17243561
1.8008308 0.2065023 0.18463498
0.67311299 -0.25858954 0.21654217
0.70972228 -0.25822127 0.22612906
0.77120984 -0.26169595 0.23433018
0.80968893 -0.25656703 0.22710666
0.86111772 -0.26351497 0.23005284
0.91395652 -0.26143932 0.23620003
0.95363104 -0.2590673 0.23172969
1.0180223 -0.26845315 0.23333178
1.0568877 -0.26259065 0.23203979
1.0934494 -0.27139688 0.23544827
1.1565393 -0.27213591 0.23918441
1.2109866 -0.26928946 0.23947431
1.2432411 -0.27216789 0.23381695
1.3172481 -0.27596557 0.23848225
1.363616 -0.27266613 0.23806846
1.4228114 -0.27543387 0.24876332
1.4526045 -0.27244452 0.24615309
1.5050784 -0.27482888 0.24321382
1.5581198 -0.27382505 0.24196754
1.6128711 -0.27636346 0.24793032
1.6644653 -0.2838344 0.24936107
1.6855173 -0.28503364 0.23491427
0.6737951 -0.24013011 0.22538011
0.69451225 -0.22631966 0.23305447
0.74121404 -0.24227226 0.2258582
0.81323433 -0.24387173 0.22824657
0.84840941 -0.24203244 0.22743504
0.92017353 -0.24281435 0.24314041
0.96763277 -0.24446774 0.23947886
1.0056192 -0.24569806 0.24228959
1.0544289 -0.24807712 0.23657948
1.0990895 -0.24889044 0.23902299
1.1668019 -0.2537863 0.23232669
1.2328013 -0.25552845 0.23332906
1.2432942 -0.25373238 0.23912342
1.3007593 -0.2556178 0.2418814
1.3436657 -0.25697312 0.24718016
1.6082026 -0.21876208 0.2608909
1.6595573 -0.23441119 0.25268811
1.6856098 -0.2278915 0.24122418
0.67055058 -0.17524628 0.23072417
0.68607843 -0.19897643 0.24093997
1.5229081 -0.15998155 0.2586517
1.5660093 -0.19301569 0.25983882
1.6131502 -0.19805105 0.26061809
1.6583371 -0.18728128 0.25294209
1.6866773 -0.19678187 0.250328
0.67148602 -0.12726997 0.22945036
0.68935955 -0.10446449 0.23242642
1.4557282 -0.11023524 0.25683042
1.5077293 -0.13424942 0.25799823
1.5660127 -0.12604135 0.25872073
1.6176172 -0.12938091 0.25953749
1.6713717 -0.13464767 0.2532652
1.6876476 -0.14087906 0.25099078
0.67104983 -0.080653533 0.22870678
0.68929064 -0.069530644 0.22756691
1.3808584 -0.058594044 0.25486413
1.4136136 -0.074019969 0.25560471
1.453961 -0.095618643 0.25656036
1.5010319 -0.097207323 0.25728101
1.5547082 -0.090908766 0.25796744
1.6115115 -0.086404867 0.25872993
1.6612575 -0.087396652 0.25632882
1.6905866 -0.074155435 0.24672794
0.62677979 -0.0071316324 0.19657654
0.66736448 -0.013881027 0.22875293
0.6912756 -0.018484131 0.22570802
1.3654959 -0.037592087 0.25428694
1.4183565 -0.027788522 0.25490281
1.4494426 -0.028974224 0.25538102
1.5124906 -0.035517819 0.25642008
1.5503938 -0.032377094 0.2569266
1.6092052 -0.039241578 0.25790852
1.662096 -0.037663713 0.25448772
0.63420331 0.0052510519 0.19525945
0.66914606 0.01185054 0.22313891
1.2712556 0.032076489 0.25173402
1.3217691 0.011089731 0.25282931
1.4113725 0.019740215 0.2540063
1.4620504 0.014294827 0.25484455
1.5090675 0.015050868 0.25552535
1.5590581 0.0049354304 0.2564314
1.609123 0.013451293 0.25702757
1.6638817 0.019133117 0.25168511
1.6927905 0.0076354872 0.25477201
0.67376423 0.083679199 0.233373
0.69398201 0.065493234 0.22303662
1.1728439 0.08885555 0.24933475
1.2137526 0.070966348 0.25023669
1.2591645 0.071594611 0.25089592
1.3100268 0.057963908 0.25187355
1.3646511 0.07482446 0.25239766
1.4167668 0.067096621 0.25329521
1.4623716 0.064836599 0.25400546
1.5112149 0.072252721 0.25460199
1.5556437 0.071781479 0.25526503
1.6061331 0.063178264 0.25615323
1.6604987 0.065975986 0.24940364
1.6907011 0.064261533 0.23510158
0.68132508 0.12567821 0.23420176
0.69420433 0.12627165 0.22576174
1.1580447 0.13303407 0.2483789
1.2109895 0.13249467 0.24916872
1.2616633 0.12571882 0.25002915
1.3097129 0.12334882 0.2507773
1.3575357 0.12918822 0.25138503
1.4052665 0.1281421 0.25210643
1.4638895 0.11593136 0.25317481
1.5042245 0.11497442 0.25378561
1.5696979 0.12150161 0.25464219
1.6113751 0.11432794 0.25537655
1.6676048 0.11995669 0.25325695
1.6961558 0.100807 0.25043041
0.68053603 0.17758387 0.22809598
0.69875693 0.17719059 0.23198307
1.0617296 0.18023416 0.24617051
1.1091801 0.17207904 0.2470064
1.1609921 0.17342117 0.24774811
1.2106969 0.16283418 0.24865785
1.2717004 0.16966014 0.24944353
1.3110269 0.16958031 0.25002483
1.3677912 0.16867635 0.25087702
1.4152933 0.15919894 0.25173578
1.4622505 0.15811989 0.25244629
1.5129753 0.15989648 0.25316468
1.5518992 0.1732935 0.25351501
1.6113716 0.16897742 0.25446412
1.6622678 0.17673177 0.24402191
1.6963892 0.17107841 0.24889132
0.67965376 0.23262264 0.2160771
0.70666122 0.23174019 0.22145297
0.76473832 0.22779176 0.22428438
0.80918336 0.22809076 0.22550173
0.86285794 0.22954144 0.23044375
0.90935636 0.22215644 0.23004113
0.96142328 0.22451997 0.22574611
1.0116351 0.22477916 0.23251082
1.0635909 0.21353856 0.23554952
1.1103334 0.2208973 0.23586527
1.1623379 0.22003825 0.2438412
1.2148173 0.21587065 0.23769571
1.2634851 0.21237524 0.23797381
1.3111007 0.20927265 0.24285974
1.3639803 0.21253556 0.23745742
1.4155717 0.20858583 0.24806297
1.4541715 0.20735101 0.24184915
1.5077062 0.20620859 0.24302034
1.5562268 0.20482248 0.24526769
1.6131899 0.19984888 0.24692684
1.6746701 0.20224516 0.23926598
1.698293 0.20197923 0.23833525
0.66756165 -0.2609947 0.24894407
0.70013762 -0.25812414 0.2483187
0.81155086 -0.260943 0.2494866
0.8439455 -0.25997168 0.25140029
0.90335512 -0.25995687 0.25227618
0.95236087 -0.26115313 0.25223696
1.0129099 -0.2571913 0.2539351
1.107218 -0.26219901 0.25586063
1.1620688 -0.26348314 0.25766277
1.2061515 -0.26611865 0.25861615
1.2435889 -0.26457855 0.25809166
1.31371 -0.2690683 0.25872284
1.3601943 -0.26821074 0.26027054
1.4123558 -0.26492915 0.26196235
1.460271 -0.26404363 0.26359189
1.5126795 -0.27181435 0.26227087
1.5561657 -0.27101716 0.26378962
1.6069098 -0.27326807 0.26458168
1.6535945 -0.27680346 0.26757506
1.6860691 -0.28307253 0.29054281
0.67233205 -0.23644301 0.26492974
0.70331931 -0.23012519 0.25112918
0.75625205 -0.22268444 0.25148085
0.80472016 -0.23166968 0.25271899
0.85476375 -0.24009612 0.25231212
0.90762711 -0.2363116 0.25251871
0.94961703 -0.23249575 0.25300235
1.0023221 -0.22955215 0.25518471
1.0551461 -0.23536254 0.25576407
1.1107758 -0.24207798 0.25565118
1.1643437 -0.23634136 0.25502428
1.205835 -0.22762889 0.25818911
1.2653093 -0.23013341 0.25877607
1.3128188 -0.23695724 0.26004934
1.3630468 -0.23668396 0.2597248
1.4103527 -0.23668933 0.26171252
1.4440714 -0.2326169 0.26120356
1.5019801 -0.22847778 0.26198852
1.551371 -0.23049134 0.26483539
1.6070831 -0.23504138 0.26573294
1.6593939 -0.24046114 0.2655808
1.6846217 -0.23160978 0.26332438
0.67467642 -0.17568335 0.27095681
0.70609689 -0.17287062 0.25112128
0.75789535 -0.16938363 0.25182691
0.80736625 -0.1793303 0.25186256
0.86157548 -0.17833662 0.25333336
0.90577567 -0.18363251 0.25240275
0.95825124 -0.17957571 0.25523844
1.0037208 -0.18692677 0.25488502
1.0461916 -0.18050171 0.25540408
1.1136904 -0.17224804 0.25557369
1.161943 -0.17417297 0.25700545
1.2122915 -0.18239051 0.25750291
1.2549379 -0.1853247 0.25708875
1.3113828 -0.18752909 0.25943232
1.3603811 -0.18314447 0.26076967
1.4039967 -0.18090074 0.25974917
1.4565028 -0.18570881 0.25924864
1.5128875 -0.18362924 0.2628302
1.5622871 -0.18919083 0.26488018
1.6145579 -0.18135381 0.2672402
1.6545563 -0.19569193 0.26641572
0.67499077 -0.11977896 0.25731975
0.70345068 -0.12248225 0.24880236
0.75661218 -0.13575856 0.25076884
0.81112719 -0.12559086 0.25340235
0.85729527 -0.13253632 0.25132617
0.9080286 -0.13142484 0.25160903
0.9578619 -0.1390968 0.25390166
1.0099795 -0.13608664 0.25527522
1.0510474 -0.13616171 0.25629911
1.1053928 -0.12936413 0.25636157
1.1575178 -0.13829146 0.25702912
1.2074697 -0.13095285 0.25619081
1.2570906 -0.13407783 0.2574265
1.3058318 -0.12992665 0.25770068
1.360943 -0.1410327 0.25987825
1.4089708 -0.12807374 0.25930539
1.465116 -0.13204783 0.2624931
1.5050519 -0.13914403 0.26320055
1.5385867 -0.11377825 0.26499161
1.6210335 -0.1420278 0.26667914
1.6596227 -0.14095087 0.26595029
0.67684317 -0.069085225 0.2624411
0.71081758 -0.081168242 0.24961627
0.7603631 -0.086819574 0.24790479
0.81374645 -0.079884313 0.25201637
0.85949099 -0.082064763 0.25194553
0.90526259 -0.080854319 0.25166216
0.96967924 -0.087690622 0.25272623
1.0073514 -0.072441943 0.25204432
1.0619875 -0.078434214 0.25454003
1.1042848 -0.080134042 0.25458512
1.1608042 -0.070693925 0.25499639
1.2163154 -0.087892756 0.2556788
1.2616266 -0.080202051 0.25518662
1.3066452 -0.07783477 0.258219
1.3708801 -0.079818785 0.25851139
1.3980833 -0.085184604 0.2618168
1.4539369 -0.077231072 0.26313314
1.5003204 -0.088832766 0.26401082
1.5590205 -0.089808218 0.26489276
1.6199336 -0.078843571 0.26560804
1.6423949 -0.08610104 0.26606041
0.67749643 -0.027491303 0.26272663
0.71002865 -0.026889596 0.24823712
0.76124752 -0.029395204 0.24894379
0.80802858 -0.030659081 0.24912557
0.85991776 -0.033513181 0.24989027
0.9090575 -0.03231344 0.2513991
0.96520388 -0.029748259 0.25298288
1.0063806 -0.023654619 0.25105166
1.065962 -0.036693223 0.25501472
1.0970751 -0.02654005 0.25444403
1.161301 -0.029603651 0.25458232
1.2146817 -0.031415548 0.25367978
1.2648551 -0.025004251 0.25682652
1.3132224 -0.032731634 0.25593674
1.3562987 -0.036228217 0.25975773
1.4044935 -0.01182634 0.26131201
1.4686608 -0.026159575 0.26249757
1.4958405 -0.040444959 0.26313692
1.5607718 -0.03630171 0.26402527
1.6006529 -0.047534436 0.26480097
1.6448958 -0.026843484 0.26510796
0.68018496 0.015551526 0.26707849
0.70510089 0.029214595 0.24815454
0.76484156 0.01961704 0.24722585
0.80806482 0.026809964 0.24843121
0.85763717 0.023617545 0.24898624
0.91070032 0.022967326 0.2502383
0.95618236 0.018762069 0.25160992
1.0100617 0.017431194 0.25087869
1.0632704 0.0079974048 0.25078884
1.1063724 0.026165389 0.25198117
1.1609813 0.018608032 0.25446069
1.2117915 0.01539026 0.25319967
1.2591106 0.011764349 0.25739813
1.3076322 0.015987657 0.25941914
1.3679922 0.026202019 0.26013881
1.4099817 0.011662589 0.26100075
1.465089 0.01050278 0.26183277
1.510886 0.0089156236 0.26253468
1.5592587 0.016245471 0.26312566
1.5971891 0.014147334 0.2637201
1.6554459 0.017827129 0.26430708
0.68048513 0.079996198 0.25925305
0.70871091 0.068360113 0.24584612
0.76225615 0.072044224 0.24673583
0.80555403 0.069926634 0.24767433
0.85806823 0.064058781 0.24756385
0.91131186 0.069721296 0.25071174
0.96077824 0.072194956 0.24898738
0.99967992 0.065303966 0.25176099
1.0596439 0.077816427 0.25197771
1.1103095 0.070361294 0.25388137
1.1563703 0.071597993 0.25339335
1.2074503 0.070790626 0.25616679
1.2495437 0.06811741 0.25769225
1.3135602 0.070869423 0.25859034
1.3596908 0.064659312 0.25937426
1.4078802 0.060078546 0.26016143
1.4580613 0.058568954 0.26092666
1.5087584 0.056338172 0.26171157
1.5569079 0.069333836 0.26220465
1.6160845 0.061590128 0.26320666
1.6536326 0.066639468 0.26336986
0.68086565 0.12060485 0.24879862
0.70378673 0.12001191 0.24777405
0.77216625 0.12807453 0.24621114
0.81501412 0.12102787 0.24696065
0.85544956 0.12199786 0.24754077
0.91487837 0.11744519 0.24734652
0.95873678 0.12417482 0.2486454
1.0202032 0.12407541 0.24955355
1.0595249 0.11774648 0.24865556
1.1129019 0.11172348 0.25112683
1.1629343 0.11948597 0.25555733
1.2086101 0.10792866 0.25642389
1.2671713 0.12028936 0.25708112
1.3057846 0.11539435 0.2577323
1.3617302 0.11906356 0.25849605
1.4097695 0.10464821 0.25944516
1.5081241 0.11813149 0.26067051
1.5491379 0.13055727 0.26106793
1.6073046 0.11096162 0.26225287
1.6682462 0.11860739 0.26302391
0.68322408 0.1811838 0.26490784
0.70766592 0.17120624 0.24596341
0.75239551 0.16981187 0.24522275
0.8062799 0.17344777 0.24557444
0.8632822 0.17702737 0.2457547
0.90716159 0.17346655 0.24695268
0.9581207 0.17304868 0.24759556
1.0076489 0.17437166 0.24776421
1.0661449 0.16553624 0.25250113
1.1243494 0.18031752 0.25397271
1.1635445 0.17171775 0.25469428
1.214445 0.16768289 0.25551227
1.2753913 0.17597213 0.2562727
1.311236 0.17283583 0.25685367
1.3546777 0.17062972 0.25753114
1.4055027 0.16907866 0.25830659
1.4590567 0.17310786 0.25902903
1.5064343 0.16240688 0.25990638
1.5535747 0.17325845 0.26042044
1.6112553 0.15624893 0.26155502
1.6589077 0.16205323 0.26214802
0.68153632 0.22548692 0.25702173
0.70231438 0.22179952 0.25087082
0.75429285 0.22315545 0.24490613
0.81826591 0.2158929 0.24422762
0.86096835 0.22318533 0.24501756
0.90542054 0.21598688 0.24760556
0.96235311 0.21313605 0.2471379
1.0091506 0.22185175 0.2471028
1.0644431 0.21511589 0.24961421
1.1195177 0.21667285 0.24766988
1.1597617 0.21092841 0.2530084
1.2129471 0.21468864 0.25470537
1.2566667 0.2084873 0.25532556
1.3132925 0.19882607 0.25645006
1.3485397 0.19908549 0.25696552
1.4114002 0.20134707 0.25785479
1.4565383 0.20420316 0.25847277
1.5645804 0.19272415 0.26025772
1.617383 0.1948664 0.26100063
1.6738126 0.19709004 0.28009054
1.6986598 0.19970338 0.28724885
0.68074346 0.24834713 0.27037981
0.66636908 -0.26140264 0.30644527
1.6680552 -0.28565395 0.34362727
1.6851916 -0.28615192 0.34114724
0.66786015 -0.23555252 0.31795245
0.68093574 -0.24366827 0.34113979
0.67391932 -0.17097667 0.31983474
0.67502654 -0.12717322 0.31661135
0.67651224 -0.074157424 0.312745
0.67789888 -0.015303635 0.31999424
0.68029702 0.028817561 0.31206128
0.68170142 0.075218961 0.31731164
0.68430424 0.09801624 0.30621302
0.68142283 0.12862308 0.32433704
0.68526745 0.12870249 0.31013885
0.68307269 0.17110607 0.30908224
0.68691742 0.17697996 0.30749378
0.68254602 0.22168826 0.30789176
0.6906085 0.22465441 0.32229909
1.6798964 0.2033412 0.33765292
1.6991608 0.20605454 0.34046173
0.67372632 -0.26147911 0.39057469
0.68018222 -0.25372875 0.36846292
1.6697057 -0.2833536 0.38328153
1.6844313 -0.28760058 0.38768917
0.67013228 -0.22063924 0.36540371
0.68042552 -0.24618924 0.36897299
0.67275095 -0.17212029 0.36333513
0.67332411 -0.12515926 0.35986161
0.67471778 -0.074256241 0.36783803
0.67713153 -0.025203831 0.36435941
0.67950833 0.023973577 0.36719197
0.68095803 0.063342348 0.37039134
0.68254852 0.083044 0.38832465
0.68067062 0.12410378 0.36363611
0.6842891 0.12243406 0.36039573
0.68216956 0.17496164 0.37648898
0.68615091 0.18134868 0.36710608
0.68152583 0.22104658 0.36413082
0.69061542 0.2266756 0.35611263
1.6792588 0.2164575 0.40789652
1.6958865 0.20955732 0.39781117
0.68322194 0.24982718 0.36687946
0.68688095 0.25000697 0.38556236
0.67230332 -0.26108202 0.41213605
0.67938495 -0.25797516 0.41131046
1.6683921 -0.28603807 0.43755424
1.6813228 -0.27975538 0.44217679
0.66901827 -0.22470976 0.41390455
0.67977262 -0.24751508 0.4087579
0.67192674 -0.1784851 0.41789106
0.67402124 -0.12598017 0.41121763
0.67562723 -0.077161811 0.4126187
0.6763618 -0.028216913 0.41485924
0.67793095 0.02305511 0.41725755
0.6784662 0.069214053 0.41771108
0.68232298 0.096300483 0.43194866
0.68011105 0.13114513 0.41553161
0.68349528 0.12445091 0.41666287
0.68157935 0.17682214 0.41911709
0.6851474 0.16817065 0.40396458
0.67933571 0.2227836 0.42157042
0.69118822 0.22871956 0.40991554
1.6810235 0.20459378 0.42495796
1.693974 0.21172318 0.4376747
0.68870509 0.25027201 0.40570414
0.6651969 -0.25769228 0.46101972
0.67835462 -0.25243706 0.49068248
1.6620867 -0.27875805 0.48709807
1.6808646 -0.28124723 0.48335373
0.66646016 -0.229772 0.46767849
0.67908049 -0.24488233 0.45972937
0.67195821 -0.17057444 0.46858659
0.67319393 -0.12466463 0.46250185
0.67309451 -0.079838537 0.45386755
0.67669427 -0.024175631 0.46623045
0.6788094 0.033891376 0.4663595
0.67786145 0.068482429 0.46549803
0.6810559 0.073056698 0.46410626
0.67893612 0.11585869 0.45901212
0.68343735 0.14097229 0.45643771
0.68122506 0.1793818 0.4478237
0.68454921 0.17685604 0.46196228
0.67352045 0.23790558 0.45891166
0.68744266 0.22968705 0.46038648
1.6956729 0.20515449 0.48123261
0.6741147 0.25028485 0.44704819
0.69039011 0.2510314 0.4560762
0.66538775 -0.25888306 0.52121955
0.67787147 -0.25524923 0.51611835
1.6664959 -0.27071652 0.5410884
1.6806924 -0.27603626 0.54450893
0.66711318 -0.22214791 0.50426441
0.67823553 -0.24319518 0.51860458
0.67020059 -0.17657965 0.5093289
0.67211795 -0.1112021 0.50460339
0.67281437 -0.081605054 0.5078032
0.67440629 -0.02887712 0.49890447
0.6769042 0.030775346 0.50793356
0.67667794 0.069404095 0.50537401
0.6804949 0.071008608 0.49631572
0.6786989 0.11506005 0.50550437
0.6818639 0.11791569 0.50901341
0.67998111 0.17053321 0.50984502
0.68360066 0.18560609 0.4956404
0.67541325 0.23781539 0.50501227
0.68767655 0.22615074 0.50608253
1.6769305 0.20935327 0.54456604
1.6902105 0.21102357 0.5219636
0.67609644 0.25211677 0.49343663
0.68429244 0.25234145 0.52430111
0.66223454 -0.25561294 0.57140142
0.67743206 -0.24995328 0.55638278
1.6650292 -0.28019786 0.59207141
1.6801908 -0.28003982 0.58441073
0.6621753 -0.23723897 0.56517673
0.67738068 -0.23686436 0.57997698
0.6720643 0.23683994 0.55172741
0.69373834 0.24301599 0.56484455
1.6764271 0.21091527 0.58086151
1.6923015 0.21424851 0.587493
0.67950022 0.25293308 0.55088246
0.66501343 -0.25608134 0.62090987
0.67634261 -0.25502622 0.61653835
1.6623048 -0.28020614 0.64005744
1.6809906 -0.27931678 0.63056982
0.66241121 -0.23723967 0.61769158
0.67649055 -0.23871857 0.61450863
0.67123723 0.24180628 0.61659962
0.6875037 0.23947598 0.60971254
1.6756707 0.21173163 0.6320774
1.6954123 0.21208294 0.63059247
0.67586958 0.25399619 0.60897934
0.65715647 -0.25230756 0.67739177
0.72016406 -0.24941704 0.66857922
0.7465843 -0.25279129 0.67963648
0.80471063 -0.25295913 0.68015718
0.84951973 -0.25713864 0.67800045
0.89241338 -0.25842485 0.68754029
0.94253242 -0.25522739 0.68194032
0.99884999 -0.26066872 0.68602628
1.0331112 -0.25998485 0.68536651
1.1012961 -0.26050121 0.68016446
1.1364554 -0.26367646 0.68520904
1.1921654 -0.25797376 0.69588542
1.2502339 -0.26701835 0.68402624
1.2849754 -0.26171318 0.69459462
1.3548003 -0.26625749 0.69203442
1.3932101 -0.26752532 0.69571912
1.4487604 -0.26475388 0.68732899
1.4890285 -0.27234009 0.69481522
1.5471541 -0.26554745 0.69706744
1.5937732 -0.27037624 0.69620657
1.6543956 -0.27276808 0.69990009
1.67637 -0.27693465 0.69866413
0.66044044 -0.23278964 0.67041045
0.68922687 -0.22620352 0.68186069
0.74690759 -0.23301767 0.68217111
0.80511343 -0.23064308 0.68476224
0.84974849 -0.22889596 0.68835735
0.89998376 -0.23732756 0.68694001
0.94536543 -0.24436368 0.68561816
1.002588 -0.23128098 0.69286227
1.0522499 -0.24196962 0.69466913
1.0994529 -0.24038537 0.68523836
1.1495423 -0.23732612 0.6932404
1.2011784 -0.23495628 0.69357991
1.2488672 -0.24517466 0.6918748
1.3021673 -0.23290214 0.69677889
1.347527 -0.23549069 0.69945306
1.4014661 -0.24411528 0.69097948
1.4485116 -0.23474126 0.69748598
1.4966755 -0.24247135 0.69936997
1.5464966 -0.22923553 0.70375597
1.5946283 -0.24074593 0.70741004
1.650165 -0.23020068 0.69995558
1.6787331 -0.22835815 0.70062631
0.66144526 -0.16852848 0.6775412
0.67915916 -0.17282888 0.67323929
0.7585783 -0.17982116 0.69062328
0.79976201 -0.17495513 0.69114947
0.84128165 -0.19179119 0.69204283
0.89354241 -0.17305766 0.69250077
0.95337701 -0.1809452 0.69351488
1.0002273 -0.1885792 0.6943332
1.0567099 -0.18059444 0.69503289
1.0967984 -0.18264587 0.69565833
1.1404819 -0.18525006 0.69634598
1.2159331 -0.18944958 0.69752884
1.2343163 -0.16492568 0.69739056
1.2935997 -0.16150501 0.69820768
1.3474603 -0.18163019 0.6993379
1.4086105 -0.19025317 0.70038372
1.4679174 -0.16827692 0.70089144
1.5039886 -0.18021163 0.7034573
1.5438534 -0.17069682 0.70617962
1.5975943 -0.17597973 0.70489812
1.6517161 -0.18169513 0.70371544
1.6801366 -0.18913065 0.69438964
0.66185391 -0.12857543 0.67774802
0.69189787 -0.12287967 0.68139094
0.74679911 -0.12150891 0.68947601
0.81382883 -0.12067986 0.69045073
0.85951424 -0.11879008 0.69109285
0.90927184 -0.13328458 0.69206876
0.93408251 -0.11495429 0.6921286
1.0003853 -0.12866196 0.69333518
1.04197 -0.13766506 0.69409877
1.1088622 -0.12472068 0.69486916
1.1540719 -0.12993971 0.69562304
1.1849079 -0.13386659 0.69614333
1.2494897 -0.1257274 0.69695985
1.3001385 -0.13220096 0.69781488
1.3475888 -0.13117284 0.69849741
1.4092396 -0.13368411 0.70021296
1.4527611 -0.12818906 0.70476174
1.4935287 -0.12166989 0.70221084
1.5456625 -0.13183458 0.70509887
1.5968534 -0.12782493 0.70555753
1.6510806 -0.13316728 0.69768935
1.680396 -0.12660676 0.69738781
0.66515005 -0.074327558 0.67572814
0.70037067 -0.068802759 0.68225163
0.73379207 -0.072079755 0.6884591
0.7919848 -0.079011798 0.68943292
0.839203 -0.066192456 0.68991524
0.90180361 -0.073450014 0.69095963
0.9502691 -0.080281369 0.69178843
0.99180269 -0.077360943 0.69235206
1.1032563 -0.083030753 0.69409049
1.1569667 -0.081219293 0.69485223
1.193536 -0.083833635 0.69543523
1.2560949 -0.07340236 0.69618362
1.2893573 -0.081564069 0.69681048
1.3488699 -0.071415469 0.69751859
1.4002647 -0.07787846 0.70044845
1.4538671 -0.083626151 0.70297563
1.4955152 -0.07778506 0.70349222
1.5538189 -0.070090212 0.70166564
1.5921459 -0.082041815 0.70281267
1.6522356 -0.080258437 0.69362998
1.6840243 -0.074618407 0.68982911
0.66643453 -0.030927543 0.67960823
0.69524276 -0.023753416 0.68092221
0.75044572 -0.019781705 0.68783152
0.7983892 -0.021683505 0.68857032
0.85443842 -0.027665965 0.6894967
0.90306544 -0.028812852 0.69023299
0.95233274 -0.033982608 0.69104582
0.99704051 -0.032278538 0.69167668
1.0523278 -0.025143996 0.69237292
1.106518 -0.030687738 0.69326454
1.1440929 -0.026744599 0.69375294
1.1987519 -0.034279324 0.69468474
1.2511718 -0.024942016 0.69530195
1.3061792 -0.017199647 0.69893241
1.35097 -0.027459098 0.70043683
1.4004385 -0.034673609 0.70133507
1.447547 -0.033753693 0.70129359
1.4984151 -0.032647341 0.70282942
1.5486004 -0.029254356 0.70251215
1.5981076 -0.023930948 0.70326799
1.6530943 -0.03325624 0.69806051
1.6841964 -0.026506806 0.68174177
0.66983151 0.0077373479 0.67156672
0.69279432 0.031219956 0.68010831
0.74947166 0.023723023 0.68709069
0.795277 0.035788916 0.68756485
0.84356546 0.030894501 0.6883586
0.89728236 0.026338875 0.68922698
0.95032299 0.014147907 0.69021273
1.001927 0.023234598 0.69082201
1.070338 0.026794983 0.69177139
1.0955886 0.024025388 0.69218993
1.1582526 0.018769825 0.69320184
1.2064764 0.028272977 0.69547439
1.2486917 0.026510334 0.69899303
1.296877 0.025223365 0.69880784
1.338666 0.0098268539 0.69896042
1.4002846 0.018139157 0.70022166
1.4587251 0.023505192 0.7009939
1.5008588 0.017788855 0.70220226
1.5513316 0.01464368 0.70156938
1.6066272 0.01309168 0.70308429
1.6493456 0.010526638 0.6985479
1.6859868 0.018725373 0.68696141
0.66644597 0.064412251 0.67531604
0.69381011 0.082057804 0.67652643
0.75052345 0.075332843 0.68624461
0.80913138 0.067818478 0.68723434
0.84489739 0.076136746 0.68762296
0.91274655 0.074028358 0.68865877
0.95003211 0.070596404 0.68926591
1.0011506 0.065131225 0.69011104
1.0585256 0.070294611 0.69087088
1.1046883 0.078435898 0.69256252
1.1581898 0.074090734 0.69424301
1.2000384 0.073160291 0.6952033
1.2522869 0.0708666 0.69784683
1.3054053 0.075657748 0.69786215
1.3539374 0.064956017 0.69902116
1.4034247 0.073654674 0.69983268
1.4468564 0.067269959 0.70066154
1.5084417 0.069134369 0.69981867
1.5482925 0.077384278 0.70164454
1.5965747 0.067468718 0.70149899
1.6528332 0.061502978 0.70083827
1.6855555 0.066957712 0.69169664
0.66945481 0.12837137 0.6638431
0.69011056 0.12831447 0.68105698
0.74573338 0.13047945 0.68525332
0.78936756 0.12118559 0.68605191
0.85490668 0.13312419 0.68681914
0.90897202 0.13287354 0.68762064
0.95230949 0.1298019 0.68831104
1.00576 0.12491407 0.68918091
1.0622631 0.12632291 0.6934306
1.0948906 0.12857109 0.69387424
1.1492468 0.11436126 0.69567752
1.1989601 0.11844385 0.69428807
1.2618966 0.12677138 0.69663185
1.2920974 0.12099212 0.69847274
1.3555653 0.12073609 0.69784933
1.4081501 0.12128708 0.69792759
1.4471378 0.11716499 0.69925934
1.5096961 0.11788213 0.6994819
1.5583318 0.12524399 0.69982606
1.599605 0.1139846 0.7018255
1.6499103 0.11197998 0.69415104
1.6870556 0.12262778 0.69030505
0.67274117 0.18557383 0.66465843
0.69628477 0.17146379 0.67600185
0.75304615 0.17545375 0.68461031
0.79761374 0.1788089 0.68521154
0.85317802 0.17623504 0.6860739
0.9092592 0.16642368 0.68706477
0.95119929 0.17430171 0.68755168
1.0027726 0.18325555 0.68953878
1.052894 0.1689155 0.69237906
1.093936 0.16620791 0.69391996
1.1547914 0.17059378 0.69367373
1.1962644 0.16655363 0.69522655
1.2607317 0.1700871 0.6956268
1.2987386 0.17556755 0.69462156
1.354164 0.17134777 0.69560766
1.4045001 0.17269599 0.69732136
1.4524287 0.16150403 0.6980238
1.4962378 0.15925696 0.70021892
1.5529507 0.1627948 0.70143402
1.6006305 0.16899346 0.70039302
1.6576105 0.16805036 0.69761455
1.6858083 0.16477063 0.68839753
0.67020452 0.22341929 0.67545551
0.69606209 0.23098502 0.67563033
0.75324774 0.23078363 0.67142183
0.8022846 0.2280619 0.6772002
0.85000432 0.23102736 0.67658693
0.90243232 0.22657235 0.67944509
0.94764471 0.22815637 0.67947096
0.99638784 0.22585028 0.68261713
1.0550404 0.22550829 0.68524683
1.1048518 0.21861486 0.68843454
1.1546887 0.22294958 0.68030536
1.2008656 0.21660292 0.68563485
1.2505517 0.21777895 0.68593675
1.2946663 0.21456702 0.68629444
1.3515916 0.21629305 0.68947637
1.3984641 0.2118766 0.69260752
1.444797 0.21683256 0.68940282
1.4996148 0.21362686 0.68821579
1.5562788 0.21076842 0.68967128
1.6035578 0.20898113 0.69184494
1.6605105 0.20703375 0.6867792
1.6886791 0.20987332 0.68321884
0.6708647 0.25257596 0.66440433
0.70067275 0.25296775 0.66195953
0.73328948 0.25090602 0.66479099
0.65573025 -0.25572807 0.70826042
0.67453516 -0.25242478 0.71289498
1.3550875 -0.25906304 0.70762324
1.4015412 -0.25722849 0.70827764
1.4474937 -0.26005793 0.70900255
1.4928149 -0.26051387 0.70967853
1.5728694 -0.26043722 0.71085787
1.600685 -0.26627502 0.71136552
1.6623391 -0.27577674 0.74652141
1.678493 -0.28027421 0.74833953
0.65716732 -0.24022557 0.70700222
0.691522 -0.22647379 0.70126063
0.75013614 -0.22530302 0.6981383
0.80056632 -0.22376581 0.69885629
0.84603751 -0.22710285 0.69919896
0.89172375 -0.22249754 0.70017946
0.94597125 -0.22357926 0.70099741
0.99413252 -0.22282545 0.70169514
1.0499023 -0.22306842 0.70214206
1.1029607 -0.23331727 0.7034753
1.157239 -0.23531836 0.70430917
1.1918088 -0.23323682 0.70478415
1.2449418 -0.23900673 0.70566404
1.2963163 -0.22983664 0.70626855
1.3473117 -0.23382035 0.70708716
1.401931 -0.22159633 0.70768857
1.4536552 -0.22471277 0.70850331
1.4889417 -0.23219515 0.70914865
1.5461853 -0.24852136 0.7102654
0.70144832 -0.17122325 0.69651735
0.75103939 -0.16818203 0.69719791
0.79819441 -0.16761355 0.69788384
0.84986162 -0.17591804 0.69878429
0.90204823 -0.1672658 0.69940954
0.95500481 -0.17058548 0.70024592
1.0012012 -0.1811443 0.70110345
1.0524068 -0.1806072 0.70184964
1.1045955 -0.16913317 0.7024278
1.1574366 -0.17014989 0.703224
1.1945806 -0.18514669 0.70402211
1.2479259 -0.18032125 0.70472836
1.2881165 -0.17146192 0.70517308
1.3578665 -0.18887691 0.70649248
1.4045062 -0.17887664 0.70701331
1.4412156 -0.17896377 0.70755607
1.4837215 -0.20114474 0.70855325
0.6955719 -0.12417307 0.69564509
0.75096643 -0.12981014 0.69655615
0.78628206 -0.12485191 0.69699419
0.85842133 -0.12791976 0.69810933
0.9001404 -0.13309735 0.69881105
0.94398546 -0.13445619 0.69948018
0.99789429 -0.12082234 0.70004761
1.0513034 -0.12751882 0.70094717
1.1029365 -0.13059883 0.70175999
1.1540668 -0.12438396 0.70241016
1.1994003 -0.12121829 0.70302588
1.2427697 -0.12758438 0.70377177
1.3014457 -0.13416003 0.70474684
1.3349894 -0.13137168 0.70519495
1.3906952 -0.11991917 0.70582527
1.4377953 -0.14950687 0.70701385
0.70329332 -0.07236857 0.69461924
0.75097108 -0.075827003 0.69565493
0.80152106 -0.063123167 0.69618839
0.85043764 -0.074525878 0.69710016
0.90283644 -0.077678531 0.69792551
0.96708441 -0.078916818 0.69889373
0.99988043 -0.07668969 0.69934011
1.0423837 -0.081293955 0.70004374
1.1047138 -0.072534449 0.70081675
1.1474497 -0.07918147 0.70155787
1.1998541 -0.071464494 0.70220196
1.2398849 -0.078140482 0.70290369
1.3004017 -0.079076476 0.70381176
1.349923 -0.094762832 0.704804
0.72362697 -0.02375241 0.69438237
0.74637461 -0.030508276 0.69483054
0.79333532 -0.026517808 0.6954565
0.86301386 -0.041738562 0.69673818
0.89101005 -0.030611839 0.69696528
0.95355666 -0.023103248 0.69776231
1.0046464 -0.030973878 0.69864714
1.0673622 -0.026053116 0.69948989
1.0936428 -0.030978778 0.6999597
1.1466368 -0.035711408 0.70082021
1.2065983 -0.026537627 0.70155132
1.2384427 -0.02146434 0.70193624
1.2822622 -0.044588912 0.70296848
0.70993721 0.026314314 0.69334453
0.74464798 0.016294785 0.69402373
0.80456352 0.013171837 0.69495946
0.85527289 0.018415222 0.6956197
0.90464652 0.02592011 0.69622248
0.96311498 0.041212536 0.6968295
0.99607348 0.014601903 0.69775969
1.0471835 0.018489741 0.6984486
1.0990281 0.029600695 0.69902778
1.1596913 0.027668664 0.69995451
1.2002668 0.012939455 0.70079875
0.69974303 0.073447183 0.69222772
0.75030172 0.083538413 0.69298446
0.80316782 0.075702183 0.69389492
0.84900677 0.088204645 0.6943621
0.90303278 0.070442729 0.69545543
0.94005728 0.077417813 0.69588494
0.99673533 0.07365562 0.6967836
1.0634899 0.075341895 0.69773996
1.1016575 0.075611092 0.69829828
1.1396683 0.059258245 0.69913185
0.70327115 0.10980827 0.69176537
0.75121093 0.13149989 0.69219708
0.82428014 0.11684631 0.69351923
0.85153317 0.13013925 0.69369924
0.89683712 0.10177429 0.69484097
0.95281327 0.116588 0.69541913
1.0021706 0.12632258 0.69598442
1.0427637 0.11743309 0.69673163
0.72142184 0.16066819 0.69127071
0.75915205 0.17472577 0.69159245
0.79641473 0.17028934 0.6922161
0.84341538 0.17899708 0.69276375
0.90724504 0.18032387 0.69368291
0.946437 0.18196402 0.69423354
0.99271441 0.15646464 0.69534177
0.67042744 0.24078789 0.70248818
0.6991818 0.2332074 0.69754291
0.75813389 0.22850329 0.69067967
0.7993933 0.22480041 0.69134998
0.85642898 0.21015266 0.69243562
0.90547442 0.21646374 0.69305354
0.93127906 0.21458764 0.69346541
1.6742046 0.2117186 0.72853118
1.6889672 0.20487066 0.73515534
0.67447579 0.25579521 0.71714044
0.68629456 0.2554394 0.71967983
0.65549135 -0.25190014 0.75543636
1.6582865 -0.27829942 0.78327423
1.6771793 -0.26674613 0.80832422
0.65853763 -0.23450433 0.76990134
0.67343998 -0.23935667 0.76305228
0.66947627 0.24695052 0.74286634
0.68472493 0.2344739 0.74134648
1.6732341 0.21395136 0.79611021
1.6872569 0.21252787 0.78428733
0.68644047 0.25598857 0.75388342
0.65913153 -0.252406 0.82419503
1.6605642 -0.27706063 0.8398478
1.6766133 -0.28315419 0.8279947
0.67019463 -0.23266107 0.82454062
0.67363226 -0.24135368 0.82341516
0.66811132 0.24199332 0.82127196
0.68521416 0.23903862 0.80532962
1.6725831 0.21317677 0.84732932
1.6838998 0.20606922 0.83514869
0.68506718 0.25591046 0.8128528
0.65417027 -0.25096455 0.87443197
0.66967225 -0.25346056 0.87713891
1.6595775 -0.28200161 0.88580191
1.6750379 -0.27888 0.89442164
0.66098249 -0.23144631 0.88042533
0.67258799 -0.24234807 0.88948554
0.6694535 0.23990002 0.86146313
0.67739546 0.23667511 0.88053679
1.6712393 0.20410979 0.90504897
1.6898441 0.20551305 0.8680855
0.67045605 0.25811973 0.87039572
0.68693709 0.25780502 0.8670361
0.66049314 -0.25261539 0.9102754
1.6577842 -0.2788457 0.94472408
1.6737188 -0.27231196 0.93064952
0.65019083 -0.24372941 0.93407631
0.67219985 -0.23414187 0.89923269
1.6710653 0.21947746 0.94987434
1.6858252 0.21580631 0.93445325
0.66946208 0.25895429 0.9171862
0.68404269 0.25749663 0.91022468
0.65700269 -0.25151464 0.9709903
0.67026436 -0.25087923 0.96619427
1.6583403 -0.28124833 1.000276
1.6745182 -0.27742514 0.98819262
0.65358448 -0.23473655 0.96116495
0.67083001 -0.23696615 0.96352887
0.66600001 0.24707724 0.97030467
0.68008041 0.23993543 0.96171314
1.6702483 0.21418916 0.99175882
1.6900219 0.21393611 0.98949164
0.66642654 0.25598934 0.96185541
0.68450785 0.25929275 0.95383567
0.65528154 -0.25086343 1.005594
1.6559083 -0.27478194 1.0335981
1.6711894 -0.27276948 1.0347791
0.65076041 -0.22911718 1.0073308
0.66853702 -0.22917943 1.0360171
0.66514397 0.24378501 1.0190655
0.68679559 0.2416157 1.0154634
1.6694267 0.21173491 1.0400785
1.6837506 0.21280146 1.0375465
0.66593921 0.25891408 1.0000628
0.68514812 0.26057681 1.0344236
0.65054834 -0.24979508 1.0591627
1.6591552 -0.26139313 1.1013795
1.6731876 -0.27281097 1.078615
0.65563536 -0.2312351 1.0610477
0.6700902 -0.23727904 1.0637554
0.6782738 0.24364446 1.0641036
1.6798041 0.21767701 1.0793949
0.667979 0.26131612 1.0444633
0.6776166 0.25996724 1.0596431
0.65162325 -0.24893333 1.1191732
0.75217581 -0.24661586 1.1257282
0.79087126 -0.24782172 1.1315222
0.83451533 -0.24935299 1.1274815
0.93308389 -0.25189555 1.1294385
0.98983479 -0.25217968 1.131973
1.0346226 -0.25523758 1.1299615
1.0908617 -0.25771502 1.1427969
1.1407994 -0.25791377 1.130669
1.1972226 -0.25821665 1.1424913
1.2520405 -0.25818855 1.1416682
1.300864 -0.26153463 1.1371765
1.3325659 -0.26039842 1.1362157
1.3913423 -0.26005554 1.1433882
1.4407145 -0.25525221 1.1514482
1.4950362 -0.26370654 1.1394786
1.540596 -0.26742795 1.1378006
1.5898162 -0.26379755 1.1449734
1.6504662 -0.27117932 1.1399484
1.6707367 -0.27147669 1.1411729
0.65063167 -0.22484422 1.1136627
0.68352115 -0.22969627 1.1285963
0.73918295 -0.22852863 1.1291773
0.77239275 -0.22331049 1.1360949
0.84373605 -0.22879301 1.1319788
0.89693689 -0.22722615 1.1317693
0.93889117 -0.22820987 1.1339203
1.0008565 -0.21850567 1.1419625
1.0421201 -0.23302642 1.1373966
1.0813712 -0.23794872 1.1383691
1.1403936 -0.22797817 1.1404917
1.1911278 -0.23188879 1.1454724
1.2453715 -0.22955613 1.1453781
1.2862216 -0.22799143 1.1439962
1.337375 -0.23760445 1.1460845
1.3857416 -0.23345578 1.1443803
1.4428842 -0.23296264 1.1506815
1.4838767 -0.23154804 1.1494433
1.5388124 -0.22420311 1.1539017
1.5853564 -0.2338437 1.1521778
1.6406438 -0.23335287 1.1517427
1.6701807 -0.21717329 1.1456556
0.65245759 -0.15782173 1.1256626
0.6741991 -0.16791601 1.1330308
0.74583519 -0.1625444 1.1376599
0.79730654 -0.17257994 1.1385865
0.83355856 -0.16351363 1.1389698
0.89608443 -0.16802028 1.1399671
0.93921494 -0.18087524 1.1408178
0.98713839 -0.17883168 1.1414905
1.0439978 -0.17529757 1.14227
1.089963 -0.17636137 1.145259
1.1438444 -0.16746713 1.1473646
1.1881828 -0.17606872 1.1482791
1.2363106 -0.17321362 1.1495231
1.2865678 -0.17296961 1.1481018
1.3384318 -0.17844409 1.1515791
1.3920107 -0.16977018 1.1494268
1.4429334 -0.17974734 1.1526058
1.4891557 -0.16830377 1.1516666
1.5427396 -0.17583926 1.1526442
1.5907024 -0.18048875 1.1535461
1.6438926 -0.17842986 1.1498848
1.6708838 -0.17293142 1.1383603
0.65366828 -0.12545684 1.1252704
0.68441999 -0.12450415 1.1322986
0.75514829 -0.11526705 1.1370078
0.78372443 -0.11682648 1.1374553
0.83032274 -0.11914682 1.1381813
0.89441061 -0.12552035 1.1392329
0.94399464 -0.12593316 1.1399711
0.97256529 -0.12624055 1.1403974
1.047438 -0.12917139 1.1415505
1.0836675 -0.12238666 1.1468861
1.1323633 -0.1288311 1.1476135
1.1803842 -0.11641833 1.1471683
1.2409084 -0.11709116 1.1470689
1.2945876 -0.12326232 1.1476767
1.338282 -0.12509003 1.1488293
1.3854713 -0.12582886 1.1492319
1.4429458 -0.13232763 1.1529402
1.4911752 -0.12223494 1.1507307
1.5365926 -0.12918791 1.1532162
1.5928009 -0.12274867 1.1527623
1.6487272 -0.12597376 1.150738
1.6740441 -0.12155078 1.1397334
0.65782654 -0.071197718 1.1223086
0.67903495 -0.069212146 1.1328068
0.75044477 -0.063884646 1.1360807
0.78610611 -0.077330299 1.136831
0.84633219 -0.074560583 1.1376729
0.89387226 -0.077861495 1.1384293
0.94051814 -0.066714048 1.1389313
0.99359119 -0.07061442 1.143219
1.0395213 -0.081555203 1.1433909
1.0855898 -0.075813003 1.1443497
1.1465594 -0.081356436 1.1445074
1.1897929 -0.066064417 1.1447134
1.2412843 -0.074373081 1.1463274
1.2924576 -0.073086545 1.1479803
1.3377934 -0.069471307 1.1486579
1.3907443 -0.079802275 1.147318
1.4392675 -0.063450381 1.149359
1.4917966 -0.081647299 1.150368
1.5470107 -0.074644223 1.1510653
1.5894898 -0.072872996 1.1517318
1.6431714 -0.079684794 1.1499166
1.6723542 -0.082733795 1.14478
0.65824544 -0.027084459 1.1185837
0.68224311 -0.023493202 1.1272209
0.74300909 -0.014035031 1.1351389
0.78344691 -0.027280733 1.1359563
0.83988845 -0.024291884 1.136739
0.89809561 -0.017734479 1.1406631
0.9352988 -0.028709019 1.1423476
0.99288213 -0.017712507 1.1406051
1.041118 -0.027947897 1.1423475
1.089397 -0.025785789 1.1433098
1.1462982 -0.023695363 1.1446877
1.1887938 -0.01863474 1.1463766
1.2316854 -0.025395239 1.1457105
1.2885844 -0.022767117 1.1479172
1.3397014 -0.029485833 1.1483244
1.3933045 -0.029318772 1.1496917
1.4322436 -0.027975004 1.1489757
1.4875057 -0.024568733 1.1512978
1.544001 -0.02346435 1.1505487
1.5928493 -0.025007531 1.1538749
1.6453637 -0.036106002 1.1463507
1.6747693 -0.029012974 1.1346207
0.65778637 0.029393038 1.1241974
0.68265605 0.037977133 1.12176
0.74620736 0.030330062 1.1344452
0.80826962 0.029532207 1.1370939
0.85197484 0.029932071 1.1410155
0.8832804 0.025527483 1.1397225
0.93990421 0.028628143 1.1409997
0.98405194 0.034722254 1.1447597
1.0402726 0.026892068 1.1427708
1.0833132 0.024194043 1.1436474
1.1348993 0.020738311 1.1443511
1.1971235 0.024203034 1.1417265
1.2429656 0.018865457 1.1442561
1.2908351 0.023961052 1.1444598
1.3408642 0.021142768 1.1471212
1.3923625 0.013895888 1.1468287
1.4337692 0.018330388 1.1477339
1.4966075 0.024844669 1.1483552
1.5433168 0.027932962 1.1487423
1.5933447 0.017836913 1.1494402
1.6464995 0.020243945 1.145407
1.6748118 0.013810217 1.1361797
0.66217864 0.084317416 1.1221094
0.69634461 0.080073193 1.1291803
0.73747528 0.086335629 1.1340693
0.78871059 0.073301092 1.1386547
0.8352536 0.071326725 1.138514
0.88746428 0.080747649 1.1386353
0.94108963 0.083915383 1.1394825
0.99239051 0.080697924 1.1411666
1.0414127 0.06859085 1.1421735
1.0941159 0.07795082 1.1419083
1.1427982 0.075124562 1.1437799
1.1953501 0.073760107 1.142801
1.2362503 0.075195722 1.1440504
1.2904789 0.077665843 1.1434015
1.3379534 0.08033815 1.1482341
1.3969994 0.067912437 1.1487076
1.4382498 0.074504957 1.1482918
1.4897043 0.067527898 1.1482289
1.5402339 0.070476413 1.1484333
1.59711 0.079275273 1.1504766
1.6499143 0.068785094 1.1466279
1.680956 0.079135001 1.1345712
0.66245079 0.12962973 1.1238734
0.69102681 0.12567168 1.1312433
0.74453557 0.13613172 1.136407
0.79645371 0.13276806 1.1384799
0.83997512 0.11974582 1.1374626
0.88856947 0.13494948 1.1379254
0.93335807 0.1250768 1.1356235
1.0041449 0.12436248 1.1406108
1.0363613 0.11872263 1.1397504
1.0891234 0.11984788 1.1408745
1.1406964 0.1270124 1.1420887
1.1984985 0.12912077 1.142906
1.2378303 0.12164959 1.143993
1.2961724 0.12895057 1.1441201
1.3408813 0.12538937 1.1462147
1.3973036 0.125348 1.1434437
1.4423652 0.12376072 1.1471652
1.4961146 0.11604238 1.1475134
1.5399054 0.11524298 1.1479079
1.58784 0.11924082 1.1479527
1.6490099 0.11873767 1.1450909
1.6780655 0.11376645 1.1316197
0.66150844 0.16291018 1.1181626
0.69054604 0.17752895 1.1289076
0.73857486 0.18449849 1.1337247
0.79682326 0.17388621 1.136923
0.83926952 0.1737377 1.1361754
0.89094746 0.17558736 1.137977
0.95157766 0.17681175 1.1412205
1.0018647 0.18187895 1.1388125
1.0493551 0.18200411 1.1392503
1.0932457 0.17435883 1.1411718
1.1327662 0.17918877 1.1405274
1.1912071 0.17704561 1.1408516
1.2445852 0.17622784 1.1431119
1.2866015 0.17768319 1.1440825
1.3431066 0.16724555 1.1447148
1.3951081 0.16778716 1.1432488
1.4407499 0.17049883 1.1467706
1.4979416 0.17283316 1.1484444
1.5397217 0.17228669 1.1465294
1.5962852 0.17013489 1.1489476
1.6510532 0.17414704 1.1460521
1.6837726 0.17310885 1.1392331
0.66314304 0.2293902 1.1214797
0.68906987 0.23427878 1.1236674
0.74080527 0.22712418 1.1268301
0.79486239 0.23641486 1.1278673
0.8530519 0.22991072 1.1267985
0.89094961 0.23113304 1.1294144
0.93731666 0.23323101 1.1287856
0.99143016 0.23098159 1.1313597
1.0433797 0.22758991 1.1297107
1.087549 0.22806555 1.1313283
1.1479634 0.22776677 1.1305088
1.1987447 0.22857513 1.1293042
1.2411064 0.22075327 1.1377295
1.2854692 0.22853693 1.1273912
1.3407919 0.22777669 1.1325928
1.3901763 0.21610633 1.136597
1.4444811 0.21455854 1.1341066
1.4926318 0.22057176 1.1367201
1.5414038 0.21463731 1.137973
1.596274 0.21315382 1.1364065
1.6498339 0.21527252 1.1416744
1.6776516 0.2196548 1.1356161
0.66577244 0.26203141 1.1112111
0.68347239 0.26023379 1.1169703
0.74784434 0.25780362 1.1207414
0.79293299 0.2562685 1.1194627
0.88463354 0.25321114 1.1208633
0.65137529 -0.24795602 1.1789865
1.6511985 -0.26877329 1.1843474
1.6717932 -0.26587266 1.1835098
0.65559661 -0.22854711 1.1668859
0.67551851 -0.21910514 1.1459353
0.74599206 -0.21623129 1.1454387
0.77298844 -0.21234275 1.145772
0.83557367 -0.21816923 1.1464027
0.88286638 -0.21553969 1.1474458
0.92708194 -0.22661251 1.1482825
0.98716891 -0.22909196 1.1492101
1.0394779 -0.22644395 1.1499374
1.0959169 -0.21159175 1.1505216
1.1300521 -0.23391923 1.1513978
0.6971426 -0.18220781 1.1441504
0.74471343 -0.16271231 1.1445262
0.79085016 -0.17496702 1.1454114
0.83946514 -0.17293791 1.1460943
0.89533973 -0.16530704 1.146791
0.95250022 -0.18153676 1.147905
0.99082232 -0.15926017 1.1480982
1.0466955 -0.17558242 1.1491946
1.0800889 -0.18231574 1.1497996
0.69451165 -0.11785974 1.1430372
0.73791921 -0.12940292 1.1438701
0.79482031 -0.11890991 1.144534
0.83968365 -0.12233914 1.1452528
0.88985026 -0.10821292 1.1457568
0.94247627 -0.11244862 1.1466036
0.98097861 -0.13975999 1.1476274
1.0413355 -0.14639507 1.1486282
0.69851518 -0.077489495 1.1424222
0.74382341 -0.074100554 1.1430339
0.77321613 -0.072206758 1.1434356
0.83896244 -0.06845665 1.1443427
0.89835608 -0.065867335 1.1451753
0.92273474 -0.064164266 1.1455064
0.98099422 -0.095829494 1.1468942
0.68396997 -0.021868754 1.1412792
0.73818505 -0.018587997 1.1420239
0.79075134 -0.02054745 1.1428318
0.84515738 -0.022506846 1.1436669
0.88319743 -0.040428244 1.1445271
0.69701278 0.033172049 1.1405525
0.74136531 0.029946063 1.1412605
0.78506064 0.020851932 1.1420566
0.69093513 0.072031736 1.1398141
0.74102879 0.065854453 1.140656
0.67856455 0.11211843 1.1389624
0.66317391 0.24721614 1.1552809
0.68010199 0.24340834 1.15245
1.6790349 0.22304821 1.1758589
0.66542864 0.26314494 1.1520654
0.68476582 0.26043975 1.1601462
