# .PCD v0.7 - Point Cloud Data file format
VERSION 0.7
FIELDS x y z
SIZE 4 4 4
TYPE F F F
COUNT 1 1 1
WIDTH 321
HEIGHT 1
VIEWPOINT 0 0 0 1 0 0 0
POINTS 321
DATA ascii
1.6403128 -0.32571295 0.14105107
1.6734149 -0.32622811 0.11663877
1.7023399 -0.33010909 0.12551898
0.63565511 -0.28296769 0.13659833
0.67446405 -0.28909603 0.12237959
0.70233911 -0.29033959 0.12749432
1.6423939 -0.26478696 0.14310697
1.6744246 -0.26827925 0.11535767
1.7032051 -0.26382083 0.12841281
0.63629234 -0.22723614 0.14004596
0.67325515 -0.22297788 0.12462698
0.70457739 -0.22410624 0.12803052
0.52330017 -0.063099824 0.14546864
0.52465361 -0.025231704 0.14549007
0.52648103 0.024937686 0.14526522
0.5275923 0.056732815 0.14536458
0.67986768 0.19815288 0.12740722
0.71278983 0.19677214 0.12587427
1.6783589 0.1598856 0.13083605
1.7103517 0.166412 0.11481889
0.64699006 0.21469858 0.14617957
0.65550387 0.20403904 0.13702618
1.6816932 0.22440967 0.12824821
1.7172709 0.22127698 0.12126633
0.64773047 0.25481507 0.14673646
0.67746389 0.26286849 0.12675229
0.71348655 0.26304448 0.12536667
1.6315631 -0.31398335 0.1718028
1.6680565 -0.30438671 0.16491681
1.7169484 -0.31267375 0.17949434
1.7576681 -0.30687013 0.16163161
0.62760365 -0.26403433 0.17241701
0.67625445 -0.27695778 0.15513405
0.71962649 -0.27374676 0.17274563
0.76483655 -0.2575883 0.1902073
1.6325588 -0.28025162 0.17349656
1.6625313 -0.2681523 0.17127937
1.7169535 -0.27411219 0.17894672
1.7637054 -0.28213328 0.19646688
0.63086963 -0.23647976 0.16768627
0.66994125 -0.22671121 0.16649705
0.72011763 -0.2345544 0.17548186
0.76419961 -0.23927815 0.1860422
0.52254134 -0.06307283 0.15986203
0.52406466 -0.024748445 0.15992205
0.58736163 -0.010463073 0.18743384
0.60966623 -0.020392293 0.1939525
0.52604407 0.024910236 0.1593914
0.58651537 0.00093213766 0.1866544
0.52730727 0.056706041 0.15951096
0.67960185 0.19826722 0.16052599
0.71494907 0.1967475 0.16116329
1.6438619 0.18279783 0.17019993
1.6630799 0.17286165 0.17579952
1.7278272 0.16183558 0.17572221
1.7764227 0.17259002 0.19496953
0.64159578 0.22606741 0.16416459
0.65952653 0.22077158 0.18009703
0.73558664 0.21521042 0.17885131
0.77174485 0.21342066 0.18384875
1.6447997 0.20934136 0.16945879
1.6574643 0.21351294 0.17295977
1.7305217 0.21529461 0.15701841
0.64314502 0.25437343 0.15981019
0.67437404 0.25496385 0.15882385
0.71595967 0.26073399 0.15307765
0.78695917 0.25072756 0.19059095
1.5768888 -0.30038437 0.2421609
1.6439763 -0.30335778 0.22174944
0.64051777 -0.25921384 0.2250507
0.69024765 -0.25370935 0.23487376
0.72589588 -0.25808868 0.23516753
0.77604198 -0.25937361 0.23557925
0.82599008 -0.2602976 0.23598921
0.87387431 -0.26123935 0.23638228
0.92374223 -0.2572985 0.23971494
0.97198445 -0.25930855 0.24006936
1.0241677 -0.26187754 0.24012266
1.0757531 -0.26333705 0.24077719
1.1258681 -0.26600951 0.24068268
1.1724752 -0.2666899 0.24157731
1.2230816 -0.27028784 0.2411896
1.2768972 -0.27189428 0.24183336
1.3244855 -0.2738063 0.24212709
1.3753632 -0.27658114 0.24214511
1.4281975 -0.27904883 0.24243633
1.4726645 -0.27865824 0.24329653
1.5243585 -0.2832047 0.24293329
1.5733449 -0.28327367 0.24356796
1.641115 -0.28604707 0.22884738
1.6515197 -0.26816595 0.24276254
0.64225167 -0.22851805 0.23758198
0.6629948 -0.23749794 0.22812009
0.72653109 -0.24400802 0.23922586
0.77464086 -0.24539344 0.24135631
0.82474476 -0.24707018 0.24210605
0.87197906 -0.24879879 0.2428641
0.9002943 -0.24988396 0.24331655
1.6426169 -0.2237983 0.24623121
1.6512858 -0.22477783 0.24274667
0.64396071 -0.17541236 0.24166676
0.65780002 -0.17475003 0.23458229
1.6446004 -0.17388283 0.24639742
1.6510139 -0.17440499 0.24272826
0.64583361 -0.1250293 0.24189852
0.66018778 -0.1240981 0.23458561
0.64774746 -0.075066335 0.24209106
0.66026109 -0.07475993 0.23457034
0.59906477 -0.010671044 0.20081151
0.63023198 -0.018769842 0.22997658
0.66024834 -0.035551347 0.2345577
0.59913069 0.00076447055 0.20038843
0.60994726 0.00043865893 0.21217209
0.6543563 0.025886904 0.24067928
0.65620553 0.075003035 0.24048428
0.65818822 0.12507816 0.24071474
0.66043574 0.1747614 0.2403722
1.0871696 0.19959579 0.24385464
1.1228533 0.19820829 0.24406093
1.1705235 0.19628082 0.24620712
1.2100869 0.19470735 0.24873948
0.6629709 0.22440799 0.22729349
0.72748613 0.21933204 0.2372084
0.77467066 0.21705584 0.23955984
0.82414263 0.21450979 0.24026369
0.87349671 0.21277615 0.24035989
0.92567307 0.21136177 0.24031529
0.97525936 0.20820428 0.24128807
1.0230529 0.2078993 0.24071793
1.0688776 0.20685866 0.24061139
1.1208489 0.21223404 0.23825572
1.161109 0.21847509 0.23858398
0.64011317 -0.2590785 0.27496019
0.92689294 -0.25088331 0.25505808
0.97625476 -0.25258422 0.25597993
1.0257288 -0.25412554 0.25668043
1.0762445 -0.25562379 0.25721988
1.1257401 -0.25707239 0.25758815
1.1732064 -0.25848761 0.25812578
1.2254978 -0.25985688 0.25856844
1.2783067 -0.26076385 0.25967273
1.3257473 -0.2626757 0.25950035
1.3733805 -0.26414788 0.25963852
1.4186155 -0.26407534 0.26105353
1.4684491 -0.26669452 0.2603558
1.52074 -0.26656845 0.26187056
1.5736171 -0.26805663 0.26200584
1.6358266 -0.26559344 0.25828037
0.64247376 -0.2334128 0.26453093
0.65096682 -0.22367899 0.27995697
0.74760795 -0.24381188 0.25010818
0.7883237 -0.23152466 0.25638941
0.82508987 -0.22758964 0.25784665
0.87617242 -0.22869582 0.25825238
0.92569768 -0.22579318 0.25925806
0.97743362 -0.2250243 0.2598547
1.028583 -0.22479956 0.2602742
1.0793897 -0.22502437 0.26069099
1.1280735 -0.22467156 0.26109016
1.1739092 -0.22519894 0.26146623
1.2241241 -0.22474699 0.26187795
1.278607 -0.22497723 0.26232484
1.3284928 -0.22524385 0.26273412
1.3713256 -0.224398 0.2630851
1.4171796 -0.22468489 0.26346135
1.4663813 -0.22499272 0.26386496
1.5193102 -0.2253239 0.26429909
1.5764011 -0.22434804 0.26476702
1.6396084 -0.22385439 0.25846505
0.64367026 -0.17510897 0.25406453
0.65290564 -0.1748915 0.28031728
0.79317099 -0.17804383 0.25832844
0.82495695 -0.17507052 0.25858817
0.87670952 -0.17487358 0.25901252
0.92625356 -0.17501944 0.25941896
0.97714382 -0.17506365 0.25983632
1.0284787 -0.17494509 0.26025736
1.0789298 -0.175225 0.2606712
1.1279057 -0.17471781 0.26107273
1.1739439 -0.17503935 0.26145044
1.2237099 -0.1750527 0.26185858
1.2784219 -0.17505264 0.26230732
1.3283001 -0.17512597 0.26271647
1.3711302 -0.17487882 0.26306763
1.416977 -0.1746143 0.26344362
1.4661751 -0.17556605 0.26384738
1.5190951 -0.17530754 0.26428133
1.575778 -0.17435288 0.26474595
1.6412761 -0.17400894 0.25861728
0.64566129 -0.12503771 0.25409058
0.65487957 -0.12529142 0.28014544
0.7959972 -0.12547626 0.25833473
0.82468289 -0.12504296 0.2585699
0.87654984 -0.12500559 0.25899521
0.92622632 -0.12498377 0.25940275
0.9770624 -0.12495216 0.25981957
1.0282725 -0.12510705 0.26023966
1.0788839 -0.12521042 0.26065484
1.1279241 -0.12478528 0.2610569
1.1735612 -0.12489456 0.26143122
1.2235318 -0.12501611 0.26184109
1.2785035 -0.12515208 0.26229203
1.3235919 -0.12853694 0.26266289
1.3703452 -0.14090455 0.26305032
1.4159311 -0.14182298 0.26342446
1.4648846 -0.14404348 0.26382667
1.5170037 -0.14513958 0.26425442
1.5760572 -0.14705437 0.26473936
1.6217581 -0.14871565 0.26511472
0.64770144 -0.074168131 0.25501284
0.65687263 -0.075106293 0.28029713
0.79586923 -0.075340629 0.25831762
0.82454884 -0.075220279 0.25855273
0.87645811 -0.075266309 0.25897852
0.92614317 -0.074660353 0.25938585
0.9769848 -0.074695371 0.25980282
1.0281668 -0.074858114 0.26022267
1.078787 -0.074989028 0.26063788
1.1275707 -0.074861243 0.26103804
1.1733892 -0.075090796 0.26141381
1.2233517 -0.075000912 0.26182356
1.2780499 -0.075258881 0.26227227
1.3175627 -0.074705869 0.26259616
0.64865482 -0.029322455 0.25890347
0.65823531 -0.024094155 0.28052986
0.79576087 -0.032927409 0.25830311
0.82494974 -0.032161511 0.25854224
0.87638569 -0.030534111 0.25896361
0.92639357 -0.028567169 0.2593731
0.9770472 -0.027009126 0.25978804
1.0283272 -0.025658572 0.26020822
1.0786188 -0.024994805 0.26062047
1.1274031 -0.024943586 0.2610206
1.1732156 -0.02496512 0.26139632
1.2231725 -0.024988592 0.26180604
1.2778635 -0.02501427 0.2622546
1.3173729 -0.025036171 0.26257861
0.65885901 0.024843238 0.27624571
0.82344276 0.034264464 0.25850862
0.87501788 0.037189234 0.25893062
0.92452806 0.039957017 0.25933588
0.97540241 0.042741176 0.25975218
1.0257374 0.045870222 0.26016402
1.0752972 0.028386988 0.2605761
1.1295971 0.002199322 0.26102987
1.1749265 0.0033518616 0.26140124
1.2243928 0.0056292145 0.26180619
1.2790253 0.0070544803 0.26225379
1.3172466 0.0080708181 0.26256695
0.66123176 0.07482899 0.27569368
0.82410073 0.075040683 0.25850096
0.8760227 0.074944675 0.25892678
0.92553627 0.075034596 0.25933287
0.97646457 0.074884892 0.2597506
1.0276994 0.075188316 0.26017073
1.078058 0.07494653 0.26058382
1.1268562 0.076388985 0.26098362
1.1725804 0.078797415 0.26135778
1.2223784 0.082440123 0.26176497
1.2768173 0.084287919 0.26221088
1.3252182 0.088183202 0.26260656
0.66319293 0.12468874 0.27567521
0.82416934 0.12510191 0.25848547
0.87576336 0.12487491 0.25890863
0.92562711 0.12515567 0.25931752
0.97624683 0.12477812 0.25973278
1.0274919 0.12539434 0.26015291
1.0782539 0.12489474 0.26056936
1.1269001 0.12472209 0.26096836
1.1726941 0.12499768 0.26134384
1.2226306 0.12563807 0.2617532
1.2773063 0.12455917 0.26220199
1.3269171 0.12475354 0.2626088
0.66520643 0.17489013 0.27560279
0.82659847 0.17429516 0.25848952
0.87572712 0.17490922 0.25889224
0.92547941 0.17512012 0.25930026
0.97630495 0.1749759 0.25971714
1.0273875 0.17516141 0.26013598
1.0790919 0.1784575 0.25981703
1.125567 0.18293612 0.25888485
1.1729854 0.18064854 0.25940716
1.2218179 0.17986004 0.25977907
1.2747843 0.17687741 0.26102304
1.3252962 0.1727384 0.26234919
0.66292721 0.2214272 0.27565631
0.78711414 0.2115286 0.25239128
0.82515824 0.20835437 0.25564486
0.87481463 0.2068536 0.2557275
0.92561442 0.20531553 0.25568521
0.97593212 0.20367759 0.25569558
1.0239229 0.20200713 0.25560784
1.0622828 0.20058542 0.2551541
0.63969094 -0.25935575 0.3250258
0.64689511 -0.24479224 0.32833433
0.65077692 -0.21940239 0.32381603
0.65252823 -0.1751086 0.32507902
0.65451097 -0.12528449 0.32494068
0.64928097 -0.050642878 0.32527354
0.65646785 -0.076031312 0.32511342
0.64964908 -0.040907044 0.32758704
0.65065366 -0.016485434 0.32358688
0.65555286 0.024502406 0.3249754
0.66245925 0.074606448 0.32511547
0.66445005 0.12464102 0.32496253
0.66645294 0.17501467 0.32502088
0.6633575 0.22130264 0.32525563
0.63943499 -0.25963634 0.35480401
0.64795011 -0.2417289 0.3566553
0.65063661 -0.21609071 0.35698318
0.65228599 -0.17450882 0.35748306
0.6542576 -0.12484276 0.35794109
0.64902049 -0.050641414 0.35699221
0.65619159 -0.076115206 0.35839272
0.64953804 -0.037622765 0.35702956
0.65051126 -0.013156145 0.35698247
0.6558525 0.026174674 0.35829452
0.66219103 0.07499671 0.35965076
0.66416186 0.12465356 0.36011982
0.66615415 0.17481402 0.36045665
0.66343278 0.22058785 0.36000833
