ply
format ascii 1.0
comment Created by CloudCompare v2.11.1 (Anoia)
comment Created 4/22/25 3:33 PM
obj_info Generated by CloudCompare!
element vertex 795
property float x
property float y
property float z
end_header
3.0195 -0.564807 0.0851196 
1.99857 -0.52462 0.0907881 
2.01422 -0.519 0.0877374 
3.01098 -0.523326 0.0883431 
1.99759 -0.456802 0.0923863 
2.014 -0.45965 0.0898647 
2.99448 -0.485556 0.0887704 
3.01174 -0.490452 0.0871149 
2.01837 -0.0537846 0.0885191 
3.02781 -0.0755118 0.0849043 
2.02016 -0.032073 0.0887527 
3.03174 -0.0238412 0.0864372 
2.01814 0.0185815 0.0884927 
3.01985 0.00493167 0.0880246 
2.97781 -0.559431 0.127209 
3.02313 -0.567117 0.127517 
1.98301 -0.519037 0.128295 
2.01442 -0.517781 0.135021 
2.97715 -0.519651 0.127724 
3.02213 -0.517566 0.119011 
3.09585 -0.531176 0.148667 
1.97904 -0.465004 0.130383 
2.0228 -0.456216 0.123578 
2.07971 -0.47719 0.148562 
2.97557 -0.485196 0.127153 
3.01284 -0.488646 0.10987 
1.99973 -0.449668 0.124711 
1.85309 -0.317039 0.142997 
1.85347 -0.283524 0.143062 
1.85407 -0.222386 0.143042 
1.85535 -0.195277 0.143893 
1.98541 -0.050888 0.130587 
2.03045 -0.0529926 0.121015 
2.05059 -0.0525718 0.131047 
2.97906 -0.0675185 0.135776 
3.02234 -0.0752017 0.116241 
1.98848 -0.0296916 0.131706 
2.03339 -0.040658 0.124549 
2.08409 -0.02065 0.144397 
2.10058 -0.00723674 0.148139 
2.98219 -0.0211374 0.135158 
3.03181 -0.0145594 0.112865 
3.05997 -0.0205497 0.139682 
3.10279 -0.0301715 0.149177 
1.98511 0.014941 0.130601 
2.02562 0.0176774 0.121447 
2.05438 0.0199494 0.142349 
2.98368 0.00235146 0.131395 
3.0279 0.00427997 0.115563 
3.05383 0.0125565 0.129867 
2.96478 -0.554473 0.15974 
3.04417 -0.553716 0.157109 
3.05015 -0.554833 0.172326 
1.97337 -0.504454 0.158554 
2.02702 -0.526409 0.154293 
2.07553 -0.510438 0.18176 
2.10812 -0.521017 0.188754 
2.94249 -0.510857 0.164593 
2.96914 -0.522681 0.167151 
3.02768 -0.516735 0.15684 
3.07776 -0.517738 0.183135 
3.10993 -0.505631 0.189719 
1.9834 -0.463573 0.163419 
2.03035 -0.462654 0.164739 
2.07864 -0.474181 0.179475 
2.10608 -0.482964 0.185179 
2.97201 -0.493663 0.163878 
3.02898 -0.487367 0.162597 
3.08303 -0.492754 0.181743 
3.10502 -0.494533 0.186103 
1.85242 -0.317051 0.157238 
1.85287 -0.283307 0.157406 
1.91702 -0.255237 0.185283 
1.85363 -0.222143 0.157321 
1.92535 -0.241071 0.187689 
1.85482 -0.195415 0.158025 
1.99334 -0.0522969 0.160006 
2.02568 -0.0528749 0.156957 
2.05629 -0.0513141 0.17468 
2.98607 -0.0659064 0.164564 
3.0397 -0.058928 0.163631 
3.07626 -0.0686292 0.177036 
3.11294 -0.0599906 0.189178 
1.98664 -0.030493 0.161736 
2.04027 -0.0342502 0.162826 
2.08648 -0.0261932 0.17869 
2.11234 -0.0285907 0.18593 
2.98141 -0.0285185 0.166553 
3.03442 -0.0222665 0.158892 
3.06382 -0.0284601 0.168243 
3.11032 -0.0361116 0.1863 
1.97768 0.0149524 0.157755 
2.04064 0.0106687 0.153454 
2.05934 0.00547387 0.170539 
2.11062 0.00315497 0.187182 
2.98544 0.00216593 0.167422 
3.0598 0.00638488 0.1734 
1.97623 -0.505011 0.2213 
2.03188 -0.50236 0.232193 
2.0725 -0.507898 0.23156 
2.13063 -0.506647 0.225937 
2.17932 -0.513252 0.233008 
2.22492 -0.511172 0.23534 
2.27687 -0.511702 0.23565 
2.31108 -0.503924 0.236124 
2.36381 -0.506541 0.235956 
2.41822 -0.510694 0.235592 
2.46417 -0.50948 0.235845 
2.52291 -0.509554 0.23659 
2.56416 -0.509203 0.236384 
2.62648 -0.515067 0.236511 
2.66345 -0.510373 0.238923 
2.71567 -0.516343 0.236617 
2.76252 -0.518131 0.236322 
2.81304 -0.521262 0.235761 
2.86717 -0.528465 0.235093 
2.90994 -0.516934 0.236061 
2.9744 -0.52588 0.218597 
3.00108 -0.517566 0.22704 
1.98546 -0.476757 0.227305 
2.03103 -0.480697 0.233977 
2.08294 -0.478706 0.23915 
2.12915 -0.482069 0.237472 
2.17063 -0.490866 0.239358 
2.22495 -0.483037 0.236695 
2.27841 -0.491721 0.234034 
2.32163 -0.489496 0.235427 
2.37603 -0.491016 0.235361 
2.41799 -0.493741 0.234588 
2.46974 -0.490959 0.241234 
2.52409 -0.49241 0.238901 
2.57546 -0.493976 0.241484 
2.62105 -0.495501 0.238462 
2.6685 -0.497917 0.239191 
2.72727 -0.498471 0.240754 
2.78211 -0.493097 0.24868 
2.82387 -0.493895 0.248246 
2.87194 -0.498496 0.242967 
2.92471 -0.496421 0.248492 
2.97681 -0.485302 0.236147 
1.98178 -0.419118 0.235997 
2.00083 -0.424508 0.232287 
2.97081 -0.429851 0.238149 
3.00116 -0.417735 0.232308 
1.98069 -0.368033 0.23659 
2.00062 -0.365859 0.232169 
2.9734 -0.381625 0.237852 
1.98026 -0.317177 0.237275 
2.00128 -0.339556 0.232243 
2.97642 -0.333497 0.238238 
3.00082 -0.318731 0.233618 
1.94634 -0.256689 0.217356 
1.97749 -0.273783 0.235045 
2.00186 -0.292808 0.232397 
2.9759 -0.277806 0.237724 
1.93741 -0.246138 0.208136 
1.98551 -0.21496 0.235486 
2.00213 -0.220528 0.232086 
2.97829 -0.22934 0.237449 
3.00247 -0.214461 0.231496 
1.98841 -0.170737 0.235484 
2.00185 -0.195393 0.232016 
2.97855 -0.17882 0.241643 
3.00198 -0.180034 0.231498 
1.98595 -0.114728 0.236804 
2.00318 -0.128098 0.232321 
2.98 -0.127646 0.24133 
3.00393 -0.114573 0.231188 
1.98388 -0.0638952 0.238241 
2.00248 -0.0737945 0.231859 
2.52749 -0.0517809 0.243485 
2.5712 -0.0535545 0.239212 
2.63636 -0.0557285 0.248817 
2.67727 -0.0522384 0.238169 
2.72138 -0.0514668 0.242493 
2.7615 -0.0557231 0.24177 
2.81196 -0.0528958 0.241247 
2.86295 -0.0537851 0.241056 
2.91142 -0.0553078 0.241206 
2.97948 -0.0756957 0.235641 
3.00681 -0.05535 0.234267 
1.98632 -0.0269855 0.230214 
2.03781 -0.0257972 0.23227 
2.07947 -0.0151999 0.235885 
2.12875 -0.0135848 0.235441 
2.18715 -0.0172621 0.238992 
2.2214 -0.0182831 0.237132 
2.27511 -0.0319679 0.238569 
2.32007 -0.0289247 0.236045 
2.36286 -0.0295647 0.236781 
2.41255 -0.031039 0.235514 
2.46498 -0.0334193 0.235553 
2.52085 -0.0304518 0.235213 
2.57002 -0.0310826 0.23467 
2.62175 -0.0382554 0.236206 
2.6815 -0.0290709 0.236126 
2.71984 -0.0181633 0.234067 
2.75931 -0.0257796 0.235022 
2.81941 -0.0325492 0.236544 
2.86584 -0.0288197 0.234753 
2.92324 -0.0382031 0.23487 
2.97712 -0.0415378 0.222509 
3.00508 -0.046556 0.212355 
1.97609 -0.504714 0.271395 
2.45487 -0.502618 0.254939 
2.50417 -0.505474 0.254566 
2.5666 -0.504936 0.252259 
2.61914 -0.511684 0.252914 
2.73993 -0.501849 0.251405 
2.77489 -0.500919 0.25482 
2.82165 -0.503532 0.255163 
2.8617 -0.504484 0.25265 
2.9221 -0.508694 0.252622 
2.96073 -0.511886 0.252008 
1.97864 -0.479208 0.270589 
2.07251 -0.46692 0.25321 
2.1314 -0.475522 0.252058 
2.17371 -0.472542 0.254647 
2.21681 -0.475354 0.254549 
2.26471 -0.480169 0.254007 
2.31517 -0.48195 0.2541 
2.36247 -0.475207 0.254647 
2.41193 -0.479707 0.254851 
2.46319 -0.474363 0.254862 
2.51382 -0.475618 0.254709 
2.56596 -0.475563 0.255181 
2.61654 -0.480824 0.255194 
2.66257 -0.488476 0.254847 
2.71616 -0.490712 0.25469 
2.76547 -0.46262 0.255551 
2.81486 -0.468743 0.255337 
2.86288 -0.475198 0.25502 
2.91665 -0.477277 0.254647 
2.96393 -0.47784 0.252557 
1.98291 -0.417668 0.269995 
2.08109 -0.426398 0.255653 
2.13392 -0.439628 0.254984 
2.17458 -0.425379 0.255181 
2.21632 -0.422863 0.255644 
2.27079 -0.431237 0.255333 
2.31923 -0.423312 0.255626 
2.37265 -0.417573 0.255479 
2.42207 -0.423639 0.255554 
2.47466 -0.424921 0.255801 
2.51751 -0.421663 0.25594 
2.57131 -0.421241 0.255951 
2.61937 -0.428808 0.256001 
2.66707 -0.434488 0.256042 
2.71716 -0.440627 0.256138 
2.77649 -0.408418 0.256207 
2.82617 -0.414645 0.256239 
2.87006 -0.418624 0.256298 
2.91937 -0.426732 0.256338 
2.9658 -0.42502 0.251841 
1.98432 -0.368848 0.271879 
2.0731 -0.374288 0.255664 
2.11495 -0.385466 0.254935 
2.17303 -0.381827 0.255505 
2.2225 -0.374366 0.255656 
2.27642 -0.381736 0.255346 
2.32938 -0.360501 0.255424 
2.37881 -0.367136 0.255492 
2.42852 -0.37435 0.255568 
2.47641 -0.370173 0.255657 
2.52351 -0.369557 0.255938 
2.57881 -0.376032 0.255969 
2.62661 -0.381932 0.256014 
2.67414 -0.387738 0.25606 
2.72755 -0.388011 0.256197 
2.7812 -0.356911 0.25622 
2.8299 -0.361394 0.256294 
2.87734 -0.37267 0.256079 
2.92608 -0.379837 0.255964 
2.96636 -0.376625 0.251468 
1.98522 -0.317615 0.272554 
2.07837 -0.324992 0.255678 
2.12316 -0.333314 0.254954 
2.17712 -0.333875 0.255522 
2.22045 -0.325183 0.255557 
2.27057 -0.332984 0.255348 
2.32425 -0.310936 0.255458 
2.37273 -0.317327 0.255519 
2.42404 -0.330657 0.255539 
2.47166 -0.328514 0.255978 
2.52632 -0.322649 0.255998 
2.57793 -0.324392 0.256044 
2.63218 -0.328532 0.256076 
2.68111 -0.336507 0.256128 
2.73149 -0.341183 0.256178 
2.77892 -0.306439 0.25622 
2.83275 -0.318907 0.256306 
2.87215 -0.317765 0.256313 
2.92306 -0.327278 0.256326 
2.96844 -0.330035 0.252051 
1.98199 -0.27286 0.267115 
2.08422 -0.282625 0.25569 
2.12743 -0.283061 0.255333 
2.17802 -0.286931 0.255533 
2.23418 -0.27873 0.25558 
2.27882 -0.282774 0.255556 
2.32296 -0.255463 0.255407 
2.37849 -0.258878 0.255467 
2.4301 -0.271245 0.255037 
2.49347 -0.279856 0.255311 
2.54481 -0.278143 0.255801 
2.58465 -0.276807 0.255863 
2.63074 -0.281322 0.255899 
2.67161 -0.282639 0.256072 
2.72449 -0.291608 0.256184 
2.78168 -0.258376 0.256274 
2.8256 -0.260927 0.256286 
2.87332 -0.269076 0.256322 
2.92089 -0.274512 0.256395 
2.96971 -0.279608 0.251654 
1.98684 -0.222842 0.274546 
2.09059 -0.216846 0.255709 
2.13482 -0.227863 0.255164 
2.18401 -0.231217 0.255556 
2.22808 -0.230192 0.255664 
2.27198 -0.236553 0.255301 
2.33394 -0.206699 0.255682 
2.37625 -0.215307 0.25549 
2.41499 -0.230874 0.254961 
2.46024 -0.237665 0.255078 
2.50617 -0.23509 0.255281 
2.56648 -0.226914 0.25599 
2.63259 -0.223256 0.256033 
2.67506 -0.233724 0.256077 
2.72585 -0.240838 0.256189 
2.78241 -0.211962 0.256245 
2.83262 -0.210367 0.256303 
2.88144 -0.216599 0.256349 
2.93448 -0.223572 0.25643 
2.97328 -0.228552 0.251397 
1.98574 -0.167786 0.267934 
2.0953 -0.176299 0.255721 
2.13744 -0.185298 0.255076 
2.18726 -0.18845 0.255694 
2.22891 -0.179908 0.255782 
2.27743 -0.184896 0.255727 
2.32978 -0.166485 0.255774 
2.3821 -0.166503 0.255742 
2.43056 -0.178922 0.255922 
2.48104 -0.18491 0.255846 
2.53284 -0.171825 0.255934 
2.58314 -0.174353 0.255985 
2.6352 -0.175506 0.256044 
2.68204 -0.184999 0.256092 
2.73371 -0.186484 0.256125 
2.78587 -0.160493 0.256258 
2.83888 -0.161344 0.256317 
2.88941 -0.16817 0.256363 
2.93873 -0.175665 0.256414 
2.97341 -0.179597 0.250561 
1.98889 -0.117863 0.274385 
2.07755 -0.11327 0.255732 
2.11281 -0.129583 0.254978 
2.17784 -0.127613 0.255542 
2.225 -0.129767 0.255854 
2.28561 -0.129758 0.255648 
2.33832 -0.111694 0.255701 
2.38882 -0.117542 0.255754 
2.42093 -0.134227 0.255425 
2.47331 -0.123978 0.255846 
2.53713 -0.122928 0.255944 
2.58825 -0.127018 0.255997 
2.63956 -0.128774 0.256054 
2.68744 -0.133837 0.256103 
2.73586 -0.1417 0.256151 
2.77985 -0.118256 0.255916 
2.81626 -0.110919 0.256241 
2.86664 -0.118049 0.256292 
2.91837 -0.12059 0.256326 
2.9656 -0.128923 0.25364 
1.9897 -0.0645793 0.274229 
2.08219 -0.0738887 0.255743 
2.11968 -0.0816049 0.254992 
2.16987 -0.0889617 0.25511 
2.2228 -0.0848034 0.255735 
2.27461 -0.0771166 0.255817 
2.31805 -0.0603306 0.254936 
2.36674 -0.0644985 0.255019 
2.41688 -0.0727128 0.254952 
2.46828 -0.0757996 0.25482 
2.51757 -0.0697861 0.255057 
2.57273 -0.0721545 0.255096 
2.61851 -0.0702811 0.254041 
2.66706 -0.0742858 0.2545 
2.71683 -0.078547 0.254692 
2.76757 -0.0753869 0.254529 
2.81912 -0.0658871 0.253872 
2.86855 -0.068719 0.254046 
2.92004 -0.0709153 0.254371 
2.97258 -0.0754248 0.250698 
1.98811 -0.0281503 0.275153 
2.13078 -0.0423963 0.254597 
2.18413 -0.0355272 0.253989 
2.22017 -0.0332666 0.253919 
2.2722 -0.027395 0.253199 
2.31748 -0.035574 0.254649 
2.37157 -0.0357271 0.254573 
2.42488 -0.0389752 0.25463 
2.4716 -0.0356877 0.252988 
2.51522 -0.0371021 0.252491 
2.55858 -0.034455 0.252503 
2.60513 -0.0370887 0.253035 
2.67141 -0.0400786 0.253191 
2.73345 -0.0446764 0.253485 
2.76493 -0.044749 0.253225 
2.81458 -0.0465249 0.253431 
2.87362 -0.0412616 0.251588 
2.90478 -0.0427534 0.252366 
2.9674 -0.0451258 0.251523 
1.97612 -0.5047 0.321395 
1.97957 -0.4797 0.315011 
1.98519 -0.419414 0.316749 
1.98601 -0.369467 0.316278 
1.98618 -0.318099 0.31587 
1.98187 -0.273079 0.312888 
1.98365 -0.215721 0.314363 
1.9893 -0.166232 0.31452 
1.98998 -0.118993 0.313844 
1.99096 -0.065546 0.313631 
1.98852 -0.0283792 0.313389 
1.97604 -0.504813 0.366534 
1.98473 -0.471392 0.367108 
1.98617 -0.419809 0.366265 
1.98691 -0.370414 0.365403 
1.98659 -0.31864 0.364751 
1.98126 -0.266455 0.36367 
1.98577 -0.216061 0.36326 
1.98984 -0.166485 0.364736 
1.99028 -0.123707 0.363241 
1.99127 -0.0686166 0.366561 
1.98697 -0.0234194 0.360501 
1.97573 -0.511534 0.421857 
1.984 -0.480494 0.412813 
1.98664 -0.425272 0.414314 
1.98745 -0.376621 0.412127 
1.98826 -0.324805 0.412117 
1.98916 -0.271928 0.412127 
1.98985 -0.223315 0.407726 
1.99042 -0.171917 0.403254 
1.99138 -0.116943 0.403625 
1.99241 -0.065327 0.405248 
1.98644 -0.0205441 0.40236 
1.9743 -0.510589 0.469451 
1.98118 -0.48379 0.470021 
1.98537 -0.433387 0.470456 
1.98651 -0.38331 0.469757 
1.98764 -0.334217 0.470105 
1.98879 -0.283887 0.469817 
1.98993 -0.233501 0.46966 
1.99107 -0.183733 0.469463 
1.9922 -0.134122 0.469394 
1.99336 -0.0837767 0.469197 
1.98851 -0.0213737 0.467792 
1.97439 -0.510268 0.516325 
1.9814 -0.484632 0.514939 
2.00859 -0.4686 0.544847 
1.98748 -0.432763 0.514946 
2.0109 -0.435906 0.545841 
1.98852 -0.382555 0.514739 
2.01205 -0.386708 0.545435 
1.98941 -0.334089 0.514657 
2.01328 -0.334843 0.545276 
1.9909 -0.283066 0.514751 
2.01437 -0.288441 0.545117 
1.99183 -0.233305 0.514603 
2.01605 -0.236245 0.543982 
1.99308 -0.183541 0.514705 
2.01721 -0.187108 0.544114 
1.9942 -0.133597 0.514676 
2.01848 -0.129598 0.544481 
1.99507 -0.083036 0.514391 
2.01958 -0.0807632 0.545015 
1.98887 -0.021063 0.514151 
2.01587 -0.043512 0.544075 
1.97535 -0.508311 0.563467 
1.98546 -0.494721 0.561929 
2.00216 -0.479952 0.552904 
1.98693 -0.0132827 0.560665 
2.00573 -0.0368452 0.555762 
1.97664 -0.505298 0.613 
1.99147 -0.495155 0.620116 
1.98721 -0.0166084 0.60615 
2.00361 -0.0285134 0.634877 
1.97807 -0.506044 0.657403 
2.03425 -0.503144 0.675095 
2.06977 -0.510785 0.675076 
2.12871 -0.503491 0.676776 
2.18489 -0.503498 0.675748 
2.23135 -0.503319 0.675623 
2.28051 -0.503727 0.676369 
2.3261 -0.504126 0.676633 
2.37314 -0.50423 0.677766 
2.42395 -0.509062 0.67692 
2.47222 -0.510506 0.677084 
2.52639 -0.509505 0.677586 
2.56533 -0.507003 0.683723 
2.62275 -0.501724 0.696862 
2.67503 -0.502313 0.698228 
1.9812 -0.470087 0.678597 
2.0391 -0.494014 0.676973 
2.08708 -0.493593 0.682491 
2.1305 -0.493172 0.686078 
2.17107 -0.478547 0.692258 
2.22294 -0.477927 0.693796 
2.28439 -0.472774 0.695629 
2.3315 -0.474346 0.696233 
2.37587 -0.481721 0.693325 
2.41394 -0.484257 0.694024 
2.4642 -0.474296 0.695776 
2.52221 -0.483668 0.695279 
2.57635 -0.483829 0.69563 
2.62366 -0.479257 0.698374 
2.65959 -0.472655 0.69921 
1.98135 -0.425304 0.684312 
2.09282 -0.431969 0.697813 
2.11757 -0.434161 0.69769 
2.17142 -0.408796 0.697791 
2.21801 -0.414931 0.697804 
2.2791 -0.411536 0.697093 
2.32859 -0.413537 0.69707 
2.37807 -0.417486 0.697049 
2.42516 -0.417164 0.697865 
2.4621 -0.422028 0.697996 
2.52636 -0.426927 0.698555 
2.57743 -0.42386 0.69858 
2.62747 -0.427508 0.698734 
2.66337 -0.430276 0.699053 
1.98135 -0.375777 0.684763 
2.00033 -0.352248 0.676085 
2.0849 -0.372642 0.697757 
2.12169 -0.390101 0.69767 
2.17789 -0.35961 0.697791 
2.22425 -0.365399 0.697813 
2.28371 -0.361996 0.697112 
2.33321 -0.363844 0.697093 
2.38157 -0.367406 0.697075 
2.42921 -0.366691 0.697944 
2.4589 -0.365404 0.697991 
2.51971 -0.374397 0.698516 
2.56989 -0.373973 0.69863 
2.62225 -0.373596 0.698508 
2.65738 -0.379298 0.69906 
1.98212 -0.322022 0.684745 
2.08562 -0.322961 0.697923 
2.13241 -0.341377 0.697645 
2.17895 -0.308088 0.697793 
2.22824 -0.315279 0.697801 
2.27807 -0.322737 0.697846 
2.3238 -0.309415 0.696881 
2.38323 -0.316407 0.697094 
2.42773 -0.320062 0.697933 
2.46498 -0.316492 0.697981 
2.52431 -0.325746 0.698655 
2.57499 -0.326941 0.698562 
2.62342 -0.320835 0.698682 
2.6666 -0.3322 0.699425 
1.98293 -0.273318 0.685099 
2.0008 -0.279933 0.675428 
2.08827 -0.275812 0.697699 
2.13183 -0.283302 0.697917 
2.18567 -0.258974 0.6978 
2.2323 -0.265072 0.697833 
2.27905 -0.271519 0.697846 
2.31801 -0.26265 0.697165 
2.37622 -0.263174 0.69687 
2.4315 -0.27003 0.697946 
2.46988 -0.276463 0.698009 
2.52649 -0.276161 0.698517 
2.57175 -0.27516 0.698624 
2.62316 -0.276759 0.698692 
2.65806 -0.269177 0.698984 
1.98325 -0.223048 0.684779 
2.00267 -0.22595 0.674848 
2.08917 -0.224811 0.697643 
2.13501 -0.234133 0.697887 
2.1899 -0.210541 0.697818 
2.23558 -0.21508 0.697828 
2.28431 -0.222211 0.697859 
2.32273 -0.212987 0.697184 
2.37965 -0.21403 0.696892 
2.43457 -0.219964 0.697945 
2.46429 -0.222133 0.698333 
2.52824 -0.225863 0.698524 
2.57971 -0.225227 0.698674 
2.63213 -0.227742 0.698703 
2.66516 -0.225772 0.6992 
1.98347 -0.173948 0.685796 
2.00364 -0.177975 0.674676 
2.08908 -0.176852 0.697872 
2.12792 -0.172317 0.697893 
2.18045 -0.171033 0.698 
2.22521 -0.161505 0.697833 
2.28093 -0.170206 0.697808 
2.3234 -0.163811 0.697233 
2.38005 -0.163478 0.69692 
2.43401 -0.168489 0.69795 
2.46245 -0.185199 0.698003 
2.52948 -0.176961 0.698449 
2.57841 -0.172788 0.698533 
2.62564 -0.178838 0.698793 
2.66286 -0.172459 0.698772 
1.98419 -0.119429 0.68569 
2.00493 -0.127416 0.674913 
2.09146 -0.126516 0.697854 
2.13111 -0.122276 0.697856 
2.18695 -0.115396 0.698002 
2.232 -0.1123 0.697836 
2.2787 -0.11862 0.697863 
2.32089 -0.113905 0.697227 
2.38001 -0.112901 0.696941 
2.43362 -0.125405 0.697908 
2.46756 -0.126322 0.69789 
2.52556 -0.123567 0.698556 
2.57475 -0.124741 0.698569 
2.62617 -0.132141 0.698727 
2.66634 -0.124884 0.699041 
1.98581 -0.0751301 0.684663 
2.00396 -0.0832166 0.674892 
2.0896 -0.0730181 0.697694 
2.12288 -0.0727485 0.697842 
2.18213 -0.0641654 0.697901 
2.22592 -0.0609796 0.697842 
2.28527 -0.0687753 0.697836 
2.32669 -0.0652627 0.6972 
2.37577 -0.064725 0.697123 
2.4167 -0.0674969 0.697108 
2.45932 -0.0657987 0.697741 
2.53168 -0.0702955 0.698019 
2.5817 -0.07261 0.698536 
2.62548 -0.0704492 0.698505 
2.66137 -0.0674091 0.698729 
2.71241 -0.0559918 0.697828 
1.98483 -0.0290494 0.674866 
2.0255 -0.0343182 0.673679 
2.07675 -0.0342372 0.682531 
2.13261 -0.0314578 0.679886 
2.16036 -0.0266911 0.676457 
2.21913 -0.0301613 0.679722 
2.27328 -0.0298456 0.680893 
2.31622 -0.0289813 0.678194 
2.3568 -0.0295154 0.678175 
2.41868 -0.0406256 0.694051 
2.47599 -0.0361248 0.682094 
2.52295 -0.034455 0.680039 
2.57505 -0.0317306 0.679968 
2.61996 -0.0345798 0.681397 
2.67298 -0.0430827 0.693664 
2.71654 -0.0487209 0.698779 
1.97558 -0.508645 0.716726 
1.98495 -0.484799 0.711421 
2.01212 -0.460297 0.723818 
2.24316 -0.455413 0.700193 
2.29142 -0.462445 0.700391 
2.45677 -0.459992 0.700377 
2.5733 -0.461313 0.701475 
2.63178 -0.47436 0.700828 
1.99182 -0.412505 0.706904 
2.01249 -0.424258 0.721245 
2.2757 -0.40967 0.700242 
2.34287 -0.420508 0.700519 
2.37724 -0.431617 0.700377 
2.41094 -0.44708 0.700208 
2.47362 -0.433389 0.700831 
2.5191 -0.426228 0.700538 
2.56264 -0.428786 0.700716 
2.62443 -0.414112 0.701077 
2.65513 -0.421738 0.700662 
1.99645 -0.362543 0.710677 
2.01305 -0.376675 0.723124 
2.25945 -0.356985 0.700091 
2.3081 -0.364662 0.700291 
2.35077 -0.371822 0.700468 
2.42229 -0.377279 0.700349 
2.47157 -0.378074 0.700628 
2.52054 -0.388325 0.700819 
2.57583 -0.381097 0.700693 
2.63589 -0.366372 0.701046 
2.66212 -0.384096 0.700955 
1.99885 -0.345477 0.712279 
2.01255 -0.324568 0.722764 
2.26891 -0.307556 0.700044 
2.31645 -0.315772 0.700241 
2.36526 -0.322747 0.700441 
2.41607 -0.334121 0.700656 
2.47236 -0.320264 0.700445 
2.52924 -0.326521 0.700862 
2.58942 -0.3331 0.700671 
2.63484 -0.320403 0.701476 
2.65168 -0.314726 0.700525 
1.99455 -0.277285 0.707397 
2.01549 -0.274452 0.7245 
2.32455 -0.266198 0.700189 
2.37489 -0.274853 0.700398 
2.42802 -0.284342 0.700618 
2.47071 -0.273193 0.700472 
2.52275 -0.260113 0.700636 
2.57269 -0.2713 0.700832 
2.62146 -0.278867 0.700559 
2.65912 -0.268978 0.700822 
1.99811 -0.216458 0.709701 
2.01373 -0.226258 0.722428 
2.33335 -0.216753 0.70014 
2.38413 -0.225936 0.700351 
2.43643 -0.235055 0.700568 
2.48213 -0.225077 0.700439 
2.53404 -0.211594 0.700602 
2.58373 -0.221971 0.700796 
2.63715 -0.218673 0.700673 
2.66231 -0.242737 0.701451 
1.99448 -0.187849 0.703693 
2.01564 -0.172893 0.723325 
2.34169 -0.167868 0.70009 
2.39193 -0.176757 0.700298 
2.44484 -0.185769 0.700517 
2.49284 -0.176157 0.700403 
2.53976 -0.171476 0.700263 
2.56935 -0.168668 0.700655 
2.63155 -0.161693 0.70098 
2.65724 -0.160181 0.700077 
1.99587 -0.121918 0.705254 
2.01659 -0.126011 0.723475 
2.35014 -0.118358 0.700039 
2.40053 -0.127213 0.700248 
2.45325 -0.136486 0.700467 
2.50414 -0.12767 0.700369 
2.55627 -0.11344 0.700531 
2.60593 -0.124757 0.700727 
2.65743 -0.117364 0.700609 
1.99491 -0.0951085 0.706596 
2.01694 -0.0731485 0.722837 
2.40855 -0.0775906 0.700196 
2.46512 -0.0698258 0.700401 
2.51559 -0.0727791 0.700417 
2.56745 -0.0673923 0.70022 
2.61728 -0.0776546 0.700695 
2.65698 -0.0655271 0.700821 
1.98471 -0.0232417 0.713868 
2.01339 -0.0413433 0.723435 
2.58107 -0.0491371 0.700235 
1.97646 -0.507808 0.765693 
1.98539 -0.497271 0.769033 
2.01146 -0.462102 0.7685 
2.01353 -0.424399 0.766961 
2.01436 -0.373226 0.764954 
2.01526 -0.323372 0.765369 
2.01614 -0.27374 0.765212 
2.01687 -0.225208 0.76507 
2.01782 -0.173213 0.765121 
2.01856 -0.126383 0.768199 
2.01942 -0.074687 0.767873 
1.98431 -0.0206386 0.763672 
2.01426 -0.0422546 0.769936 
1.97627 -0.508183 0.820781 
1.98522 -0.49787 0.825565 
2.01147 -0.464229 0.818219 
2.01352 -0.426902 0.820156 
2.01419 -0.376051 0.82068 
2.01498 -0.327007 0.822654 
2.01574 -0.275972 0.821034 
2.01654 -0.228861 0.818623 
2.01736 -0.176822 0.817357 
2.01835 -0.128531 0.821219 
2.01927 -0.0782523 0.818343 
1.9833 -0.0209332 0.818489 
2.01962 -0.048342 0.813318 
1.97747 -0.509094 0.873119 
1.97797 -0.497996 0.86013 
2.01099 -0.46787 0.872325 
2.01306 -0.430455 0.868739 
2.0137 -0.377665 0.863736 
2.01432 -0.331688 0.867351 
2.0155 -0.276124 0.862189 
2.01609 -0.229544 0.861476 
2.01766 -0.175241 0.858588 
2.01812 -0.129902 0.860614 
2.01931 -0.0740567 0.858203 
1.98432 -0.0195003 0.855634 
2.01951 -0.0483428 0.863069 
1.97427 -0.510118 0.900528 
1.98117 -0.498093 0.901487 
2.01212 -0.46447 0.907629 
2.01281 -0.425237 0.907955 
2.01368 -0.375725 0.908367 
2.01454 -0.326162 0.908778 
2.01541 -0.276547 0.909191 
2.01628 -0.22688 0.909603 
2.01719 -0.175126 0.908642 
2.01806 -0.125676 0.908731 
2.01893 -0.0758523 0.909145 
1.9829 -0.0176925 0.902211 
2.01941 -0.0483435 0.909372 
