# .PCD v0.7 - Point Cloud Data file format
VERSION 0.7
FIELDS x y z
SIZE 4 4 4
TYPE F F F
COUNT 1 1 1
WIDTH 1315
HEIGHT 1
VIEWPOINT 1.99448 -0.255118 0.138346 0.505635 -0.507035 -0.489638 0.497498
POINTS 1315
DATA ascii
1.8227477 -0.31059998 0.10841474
1.8193073 -0.25086656 0.10928383
1.8441761 0.17781493 0.094399653
1.8533117 0.18079868 0.10325449
1.8438588 0.23770215 0.096291512
1.7861469 -0.30996701 0.14338082
1.8212105 -0.3100293 0.13379514
1.7682672 -0.30176336 0.1643755
1.8324728 -0.25401387 0.11934092
1.7977253 -0.24496002 0.1425477
1.8224474 -0.2506519 0.14594142
0.67447281 -0.024854422 0.13266593
0.70561409 -0.0091148457 0.13328105
0.66517234 0.014817292 0.12772642
0.67213798 0.066620804 0.12700438
1.8209687 0.17931563 0.14207834
1.8548762 0.17792191 0.1261411
1.7916528 0.2364198 0.1598056
1.8270919 0.2402558 0.13854584
1.8724018 0.21612567 0.16431692
1.7807347 -0.30979741 0.1815384
1.8205549 -0.30942199 0.18536043
1.8888004 -0.30909345 0.20357123
1.9108664 -0.31141961 0.20012063
0.7759825 -0.25984389 0.18775782
1.7773209 -0.27907926 0.19342411
1.8152093 -0.27830839 0.19578773
1.8719931 -0.27714258 0.19100103
1.9081548 -0.28804821 0.20315289
0.78180754 -0.24103305 0.18436749
1.7758963 -0.24940339 0.16997063
1.8242511 -0.25047329 0.17276315
1.8617659 -0.25339824 0.19941062
0.66110051 -0.063458271 0.15323001
0.67086697 -0.019394428 0.14690924
0.72745466 -0.010932943 0.17207503
0.66999745 0.026554869 0.14644815
0.72832429 0.0070697037 0.16840875
0.66725767 0.067449354 0.14617187
1.7813708 0.19099163 0.17956984
1.823796 0.18402059 0.17952979
1.8800888 0.18564288 0.18667221
1.9171219 0.18278483 0.19452226
0.79445601 0.23728181 0.17823645
1.7898946 0.21694377 0.1850206
1.8175663 0.21757159 0.19003177
1.8782177 0.21174268 0.17602664
1.913986 0.21413799 0.18830076
0.78803039 -0.25537258 0.21768521
0.82461822 -0.25486541 0.2273477
0.88610196 -0.25810319 0.23567411
0.92457533 -0.2528207 0.22853215
0.9760251 -0.25956884 0.23158142
1.0288423 -0.25728929 0.23783842
1.0685167 -0.25476024 0.2334509
1.1329409 -0.263895 0.23518179
1.1717858 -0.25787997 0.23397246
1.2083744 -0.2665447 0.23745257
1.271459 -0.2670387 0.24131845
1.3258941 -0.26397955 0.24172185
1.3581716 -0.26672938 0.23612978
1.4321829 -0.27023971 0.24094608
1.4785384 -0.2667588 0.24062929
1.5377223 -0.26929978 0.25144503
1.5675088 -0.26619282 0.24889748
1.6199977 -0.26837075 0.24606541
1.6730372 -0.26715904 0.24492896
1.7277857 -0.26948595 0.25100353
1.7794061 -0.27675572 0.25253749
1.800492 -0.27786642 0.23813367
0.78862214 -0.23691453 0.22653233
0.80926919 -0.22302648 0.23425525
0.85604763 -0.23879328 0.22714855
0.92806888 -0.2401122 0.22968474
0.96323836 -0.23813504 0.22894651
1.0349724 -0.23864317 0.24479948
1.0824451 -0.2401094 0.24123511
1.1204302 -0.24119242 0.24412365
1.1692606 -0.24337818 0.23851317
1.213919 -0.24401794 0.24104843
1.281664 -0.24864613 0.23448969
1.3476676 -0.25013068 0.23562743
1.3581417 -0.2482961 0.24144417
1.4156079 -0.24995802 0.24431986
1.4585083 -0.25114787 0.24970648
1.7228651 -0.21190886 0.26397884
1.7742978 -0.22735353 0.25587535
1.800348 -0.22072712 0.24446797
0.78511262 -0.1720462 0.23189721
0.80071223 -0.1957199 0.24213494
1.6373463 -0.15346134 0.26158869
1.6805737 -0.18632719 0.2628507
1.7277325 -0.19117856 0.26372504
1.7728927 -0.18022893 0.25614679
1.8012751 -0.18961751 0.25358713
0.78586328 -0.12406605 0.23064569
0.80364132 -0.10119218 0.23366825
1.5699761 -0.10397732 0.25964999
1.6220684 -0.12778848 0.26091486
1.6803176 -0.11935295 0.26176101
1.7319332 -0.12249105 0.26268274
1.7857208 -0.12754494 0.25651908
1.8020254 -0.13371165 0.25427559
0.78524613 -0.077451415 0.22992095
0.80344594 -0.066256776 0.22882342
1.4949092 -0.052628383 0.25755119
1.5277226 -0.067926452 0.25835279
1.5681524 -0.089367583 0.25938249
1.6152275 -0.090772569 0.26019955
1.6688772 -0.084264502 0.26099932
1.7256609 -0.079538889 0.26188082
1.7754157 -0.080335133 0.25958186
1.8047123 -0.066975236 0.25004715
0.74075544 -0.0040893201 0.19773075
0.78129959 -0.010693911 0.2299878
0.80523491 -0.015202189 0.22699028
1.4794656 -0.031686429 0.25695124
1.5322863 -0.021676531 0.2576803
1.5633758 -0.022740915 0.2582221
1.6264466 -0.029038385 0.25938839
1.6643363 -0.025749747 0.25997439
1.7231721 -0.032384675 0.26107466
1.7760634 -0.030598547 0.25776362
0.74813306 0.008322834 0.19643421
0.78299224 0.015046844 0.22438841
1.3849587 0.037614234 0.25423354
1.4355518 0.016824685 0.25542408
1.5251182 0.02582486 0.25678951
1.5758154 0.020577295 0.25772998
1.6228278 0.02151685 0.25850803
1.6728555 0.011596539 0.25951287
1.7228855 0.020307811 0.26021588
1.7776325 0.026205985 0.25498879
1.8065798 0.014820151 0.2581304
0.78730834 0.086888522 0.23466243
0.8076185 0.068786226 0.22436005
1.2863309 0.094009116 0.25165546
1.3273075 0.076279618 0.25263417
1.372715 0.07708513 0.25338727
1.4236282 0.063652962 0.25446403
1.4781851 0.080726698 0.25510788
1.5303289 0.073202305 0.25610965
1.5759406 0.071120292 0.25691298
1.6247534 0.078727022 0.25761336
1.6691823 0.0784292 0.25836781
1.7197027 0.070023045 0.25935647
1.7740713 0.073036246 0.25272021
1.8043095 0.071446046 0.23847975
0.79470325 0.1289164 0.23552458
0.80759752 0.12956381 0.22711141
1.2713609 0.13812982 0.25068784
1.324306 0.13779707 0.25158656
1.3750041 0.13121901 0.25254861
1.4230609 0.12903658 0.25339484
1.4708593 0.13506265 0.25410366
1.5185921 0.13420281 0.25492302
1.5772604 0.12222092 0.25610712
1.6175976 0.12142138 0.25680068
1.6830431 0.12820412 0.25779504
1.7247467 0.12119317 0.2586123
1.7809581 0.12704261 0.25661099
1.8095896 0.10800589 0.25383526
0.79372382 0.18082117 0.22943923
0.81193817 0.18049745 0.2333637
1.1748667 0.18495396 0.24830084
1.2223469 0.17698403 0.24923113
1.2741518 0.1785284 0.2500802
1.3238957 0.1681354 0.25108796
1.3848704 0.17519949 0.25200233
1.4241958 0.17527317 0.25266466
1.4809612 0.17459074 0.25363356
1.5284982 0.16529875 0.25458625
1.5754578 0.16440301 0.25539312
1.626174 0.16637754 0.25621685
1.6650443 0.17992647 0.25665313
1.7245311 0.17584254 0.25772303
1.7754183 0.18380029 0.24738909
1.8095515 0.17827833 0.25232649
0.79265106 0.23586123 0.2174419
0.81965053 0.23508205 0.22287306
0.87773693 0.23135947 0.22582254
0.92217779 0.23183168 0.22713165
0.97583628 0.23349009 0.23218495
1.0223639 0.22628708 0.23187509
1.0744299 0.22885604 0.22768843
1.1246264 0.22930859 0.23455681
1.1766195 0.21826991 0.23769785
1.2233323 0.2258112 0.23811311
1.2753234 0.22515203 0.24619588
1.3278313 0.22119227 0.24015686
1.3765117 0.21788706 0.2405338
1.4241292 0.21496856 0.24551661
1.4770067 0.2184405 0.24022472
1.5285912 0.21468791 0.25093496
1.5672084 0.2136067 0.24480024
1.6207446 0.21267307 0.24608132
1.6692659 0.2114757 0.24842811
1.7262442 0.20672411 0.2502026
1.7877303 0.20936403 0.24266958
1.8113562 0.20919088 0.24178746
0.78242159 -0.25781351 0.25007451
0.81498766 -0.25481534 0.24951753
0.92640829 -0.25719908 0.25091398
0.95879495 -0.25610194 0.25289488
1.0182024 -0.25585526 0.25389329
1.0672123 -0.25685987 0.25395459
1.1277421 -0.25266212 0.25577927
1.2220652 -0.2573019 0.25789714
1.2769169 -0.2583724 0.25981182
1.3210073 -0.26083586 0.26085499
1.3584394 -0.25914919 0.26040834
1.4285762 -0.26336509 0.26118225
1.4750535 -0.26232648 0.26282614
1.5271984 -0.25884169 0.26462689
1.5751065 -0.25776958 0.26635557
1.6275475 -0.2653347 0.26513937
1.6710272 -0.26436821 0.26674813
1.7217778 -0.26642105 0.26764384
1.76847 -0.26977518 0.27073196
1.8009216 -0.27592719 0.29376394
0.78706312 -0.23325025 0.26608038
0.81805384 -0.22680536 0.25234643
0.8709563 -0.21915786 0.25281039
0.91945672 -0.22795407 0.25414467
0.96953368 -0.23618463 0.25383744
1.0223815 -0.23219354 0.25415468
1.0643551 -0.2282138 0.25472647
1.1170435 -0.22506514 0.25701877
1.1698885 -0.23066922 0.25770456
1.2255447 -0.23716702 0.25770354
1.279091 -0.23122075 0.25718954
1.320541 -0.22234754 0.2604436
1.3800235 -0.22461975 0.26115218
1.4275569 -0.23125835 0.26252049
1.4777839 -0.23078856 0.26229966
1.5250852 -0.23060985 0.26438493
1.5587889 -0.22640537 0.26394722
1.6166793 -0.22204024 0.26485333
1.666072 -0.22386195 0.26780114
1.7217994 -0.22819452 0.26881167
1.7741315 -0.23340967 0.26876509
1.7993292 -0.22445872 0.26656449
0.78915739 -0.17248455 0.272138
0.82060766 -0.16954041 0.25236854
0.87239051 -0.16585124 0.25318247
0.92189968 -0.17560446 0.25331587
0.97610152 -0.1743995 0.25489891
1.020324 -0.17952211 0.25405717
1.0727776 -0.17526142 0.2570028
1.118276 -0.18243447 0.25674003
1.1607205 -0.17584366 0.2573494
1.2281861 -0.16732627 0.2576617
1.2764431 -0.16906312 0.25919214
1.326822 -0.17708397 0.25978991
1.3694805 -0.17985125 0.25946245
1.4259287 -0.18183593 0.26192147
1.474907 -0.17726041 0.26336169
1.5185153 -0.17484571 0.2624321
1.571041 -0.17944828 0.26203778
1.6274093 -0.1771498 0.26573649
1.6768261 -0.18251911 0.26788595
1.7290611 -0.17447883 0.2703571
1.7691169 -0.18866009 0.269609
0.78928125 -0.1165735 0.25852537
0.81776893 -0.11916179 0.25006554
0.870978 -0.13223103 0.25213599
0.92544734 -0.12185142 0.25488621
0.97164655 -0.12861541 0.2529023
1.0223745 -0.12730575 0.25329027
1.0722326 -0.13478376 0.25568241
1.1243352 -0.1315705 0.25716466
1.1654011 -0.13148542 0.25827321
1.2197192 -0.12447549 0.25845063
1.2718773 -0.13319923 0.25922188
1.3218017 -0.12566505 0.2584897
1.3714321 -0.12859653 0.25982636
1.4201562 -0.12425493 0.26020283
1.4753057 -0.13514635 0.26248932
1.5232837 -0.12199954 0.26202101
1.5794376 -0.12575547 0.26532277
1.6193992 -0.13269576 0.26610956
1.652831 -0.10719986 0.26798052
1.7353841 -0.13512757 0.26982605
1.7739701 -0.13389951 0.26917729
0.79092491 -0.065875128 0.26367199
0.82497239 -0.077819705 0.25091216
0.87454331 -0.083276525 0.24930045
0.92789066 -0.076134391 0.25352505
0.97364354 -0.078135952 0.25354758
1.0194107 -0.076746449 0.25335911
1.0838513 -0.083331347 0.25455314
1.121465 -0.067935221 0.25395536
1.176119 -0.07371489 0.25656119
1.2184223 -0.075249389 0.25669277
1.2749033 -0.065588526 0.25722459
1.3304802 -0.082570471 0.25801414
1.3757621 -0.074702479 0.2576187
1.4207647 -0.072160564 0.26074487
1.4850062 -0.073893517 0.2611689
1.5122235 -0.079154402 0.26452807
1.568043 -0.070983119 0.26596302
1.6144694 -0.082403786 0.26693141
1.673171 -0.083150126 0.26793396
1.7340392 -0.071947724 0.26877949
1.7565279 -0.079117492 0.2692751
0.79141474 -0.02427911 0.26397651
0.82397437 -0.023543976 0.24955438
0.87520111 -0.025849663 0.25036559
0.92198634 -0.026930703 0.25064331
0.9738847 -0.029582221 0.25151381
1.0230162 -0.028191037 0.25312448
1.0791488 -0.025407046 0.25482512
1.1203055 -0.019151621 0.25298139
1.1799291 -0.0319589 0.25706178
1.2110034 -0.021683929 0.25655952
1.2752407 -0.024496518 0.25682896
1.3286296 -0.026099268 0.25603572
1.3787712 -0.019493261 0.25928864
1.4271702 -0.027031073 0.25849533
1.4702519 -0.030360887 0.26240361
1.5183479 -0.0057714358 0.26406762
1.5825683 -0.019854233 0.26537943
1.6098021 -0.034033477 0.26606876
1.6747146 -0.02963683 0.26709276
1.7146382 -0.040713891 0.26794592
1.7587991 -0.019850262 0.26835293
0.793926 0.018771987 0.26835212
0.81882727 0.032540504 0.24948545
0.87860703 0.023177002 0.24867587
0.92179906 0.030538337 0.24997339
0.97138274 0.027539488 0.25062931
1.0244453 0.027096191 0.2519905
1.0699406 0.023068208 0.25345412
1.1238264 0.021948306 0.25283343
1.1770716 0.012722634 0.25284928
1.2200994 0.031058464 0.25413817
1.2747325 0.023713592 0.25672713
1.3255576 0.020695033 0.25556955
1.3728818 0.017252348 0.25986397
1.4213825 0.021664448 0.26198685
1.4817004 0.032114387 0.26283526
1.5237447 0.017738871 0.26377767
1.5788541 0.016794141 0.26472282
1.6246557 0.015385771 0.26551849
1.6729982 0.022904407 0.26621228
1.7109351 0.020954307 0.26688406
1.769176 0.024861576 0.26759279
0.79399025 0.083220646 0.26055467
0.82228887 0.071700841 0.24720109
0.87581742 0.075593844 0.24820277
0.9191215 0.073645137 0.24922964
0.97165835 0.067982674 0.24922496
1.024873 0.073851958 0.25248498
1.0743328 0.07651975 0.2508637
1.1132553 0.069779687 0.25371459
1.1731694 0.082526378 0.25406027
1.2238598 0.075268552 0.25606522
1.2699165 0.076685563 0.25567272
1.3209937 0.076076701 0.25855115
1.3630939 0.073567413 0.26016223
1.4270976 0.076569274 0.26119351
1.4732503 0.070539251 0.26206994
1.5214555 0.066146545 0.26295456
1.5716405 0.064832874 0.26382259
1.6223444 0.062799945 0.26471108
1.6704415 0.075983524 0.26530898
1.729646 0.068470776 0.26642969
1.7671736 0.073666818 0.26667246
0.79423344 0.123835 0.25011832
0.81715906 0.12333208 0.24914074
0.88550949 0.13166267 0.24772224
0.92838311 0.12478327 0.24855714
0.96881318 0.12591106 0.24922106
1.0282596 0.12159084 0.24914742
1.0720888 0.12849133 0.25053957
1.1335535 0.12863183 0.25157443
1.172901 0.12245707 0.25075483
1.2262964 0.11664175 0.2533336
1.2762889 0.12459784 0.25787055
1.3220077 0.11321883 0.25882638
1.3805186 0.12580809 0.25960961
1.4191495 0.12106379 0.26033834
1.4750786 0.12495136 0.26121902
1.523172 0.11072357 0.26226106
1.6214706 0.12459071 0.26369494
1.6624346 0.13717657 0.26418218
1.7206751 0.11780798 0.26547876
1.7815847 0.12569156 0.2663787
0.79632187 0.18441568 0.266258
0.82084143 0.17454195 0.24735983
0.86557782 0.17332281 0.24671079
0.91944683 0.17716919 0.24717516
0.97643435 0.18097152 0.24747443
1.0203247 0.17758174 0.2487614
1.0712837 0.17736284 0.24950919
1.120806 0.17887937 0.24978052
1.1793264 0.17027067 0.25463429
1.2374694 0.18527874 0.25623214
1.2766963 0.17683195 0.2570309
1.3276109 0.17299576 0.25795212
1.3885226 0.18152288 0.25884178
1.4243779 0.17852649 0.25949529
1.4678264 0.17648996 0.26026142
1.5186555 0.1751373 0.261141
1.572192 0.17937553 0.26197562
1.6196092 0.16885945 0.2629461
1.6667058 0.17989501 0.26356196
1.7244501 0.16311066 0.26480827
1.7720782 0.16910094 0.26550198
0.79447699 0.22871526 0.25838721
0.81528199 0.22511175 0.25227761
0.86726689 0.22667345 0.24642073
0.93126953 0.21966138 0.24587104
0.97394145 0.22712032 0.24675211
1.0184162 0.22009465 0.24942873
1.0753604 0.21746661 0.24907726
1.1221234 0.22636518 0.24914235
1.1774366 0.21984448 0.25176492
1.2325087 0.22161758 0.24993479
1.2727638 0.21602824 0.25535384
1.3259306 0.21999562 0.25716209
1.3696727 0.21396497 0.25786978
1.4263337 0.20452473 0.25910696
1.4615785 0.20492172 0.2596952
1.5244279 0.20742869 0.26071504
1.569553 0.21046093 0.26142731
1.6776356 0.19940363 0.26343018
1.7304279 0.20175201 0.26428288
1.786809 0.20418799 0.28349003
1.8116308 0.20689535 0.29070061
0.7935673 0.25156638 0.27175331
0.78111219 -0.25825086 0.30757287
1.7828087 -0.27860194 0.34680995
1.7999519 -0.27903184 0.344365
0.78247845 -0.23240012 0.319094
0.79553795 -0.24047473 0.34230486
0.78828132 -0.16780193 0.32101622
0.78922367 -0.12399313 0.31781366
0.79051006 -0.070970304 0.31397286
0.79165161 -0.012114717 0.32124984
0.79389346 0.032018919 0.31334063
0.79510558 0.078423128 0.31861356
0.79764211 0.10123523 0.30752999
0.79460359 0.13182271 0.32566094
0.79847729 0.13192326 0.31147075
0.79611886 0.17431833 0.31042758
0.79994392 0.18020794 0.30884957
0.79539692 0.22489859 0.30925751
0.80341816 0.22789003 0.32368267
1.7927495 0.21043804 0.34106734
1.8119974 0.21322541 0.34391701
0.78829634 -0.25833493 0.39171711
0.79476738 -0.25054991 0.36962199
1.7843686 -0.27631223 0.38646847
1.7991014 -0.2805036 0.39090461
0.78459454 -0.2174986 0.36655611
0.79498029 -0.24300972 0.37013581
0.7870276 -0.16896893 0.36451352
0.78742433 -0.12200454 0.3610611
0.78860247 -0.071099937 0.36906192
0.79083169 -0.022037024 0.36560911
0.79301023 0.027148051 0.36846739
0.79429924 0.066520765 0.37168643
0.79577577 0.086220719 0.38963136
0.79378819 0.12728354 0.36495644
0.79741991 0.12562935 0.36172283
0.79506183 0.17814127 0.37783387
0.79903722 0.18454786 0.36846191
0.79426324 0.22422865 0.36549404
0.80334747 0.22989661 0.35749698
1.791916 0.2235214 0.4113149
1.8085915 0.21669061 0.40126097
0.7958411 0.25301445 0.36825836
0.79946101 0.25320047 0.38694876
0.78682721 -0.25795272 0.41327557
0.79389846 -0.2548179 0.41246596
1.7829533 -0.27902535 0.44073713
1.7958502 -0.27269411 0.44538894
0.78339648 -0.22159439 0.41505271
0.79425061 -0.24435526 0.40991858
0.78611588 -0.17536041 0.41906479
0.78801882 -0.12284487 0.41241798
0.7894311 -0.07402128 0.4138431
0.78996956 -0.025074895 0.41610587
0.7913332 0.026201826 0.41852909
0.79168689 0.072362266 0.41900334
0.79540837 0.099457383 0.43326032
0.79309428 0.1343002 0.41685355
0.79650223 0.12761876 0.41798896
0.79437637 0.17998099 0.42046139
0.7980094 0.17135009 0.40531266
0.79194808 0.22593226 0.42292953
0.80380154 0.23191953 0.4113017
1.7936921 0.21165726 0.42837492
1.8065882 0.21883176 0.44112134
0.80124259 0.25346389 0.40709436
0.77960694 -0.25461194 0.46214589
0.79268312 -0.24931809 0.49183789
1.7765175 -0.2717914 0.49027085
1.7953128 -0.27420554 0.4865641
0.78074741 -0.22668982 0.46881902
0.79344308 -0.24174722 0.46088958
0.78601193 -0.16747163 0.46976358
0.78708065 -0.12155472 0.46370086
0.78682375 -0.076725721 0.4550854
0.79018033 -0.02105449 0.46747929
0.79206812 0.037020206 0.46763733
0.79098666 0.071607642 0.46678862
0.79416609 0.076194957 0.46540529
0.79188943 0.11899052 0.46032494
0.79629767 0.14412262 0.45777047
0.79395306 0.18252686 0.44916824
0.79725802 0.18000801 0.46331254
0.78599656 0.24101527 0.46026513
0.7999481 0.23285058 0.46176514
1.808223 0.21225096 0.48467979
0.78656709 0.25340188 0.44840813
0.80282092 0.25420815 0.45747003
0.77967846 -0.25582796 0.5223453
0.79215837 -0.25214314 0.51727146
1.7807841 -0.26375601 0.54427338
1.794994 -0.26902172 0.54772103
0.78129518 -0.21907903 0.50540936
0.79247022 -0.24008884 0.51976353
0.78419387 -0.17350127 0.5104996
0.78586543 -0.10811473 0.50580579
0.7864393 -0.078516603 0.50901949
0.78784347 -0.025779013 0.50014657
0.79008961 0.033878818 0.50920594
0.78971732 0.072507441 0.50666237
0.7935468 0.074130796 0.49761266
0.79155946 0.11817088 0.50681621
0.79470623 0.12103735 0.51033294
0.79261589 0.17364667 0.51118302
0.79620588 0.18873973 0.49699235
0.78779495 0.24091257 0.50636941
0.80010128 0.22929548 0.50746006
1.7893339 0.21634905 0.54797608
1.8026537 0.218081 0.52540183
0.78844595 0.25522146 0.49480134
0.79657722 0.25546485 0.52568269
0.77640903 -0.25259191 0.57252192
0.79161525 -0.24686635 0.55753696
1.7792493 -0.27326506 0.59524924
1.794426 -0.27304444 0.5876199
0.77629077 -0.23421556 0.56630498
0.79146421 -0.23378797 0.58113664
0.78435373 0.23990379 0.5530771
0.80597627 0.24615891 0.56624138
1.7887495 0.21789341 0.58427101
1.8045971 0.22128581 0.59093672
0.79172826 0.25602627 0.5522542
0.77908778 -0.2530708 0.62203562
0.79042184 -0.25196952 0.617688
1.7764258 -0.2733047 0.64322942
1.7951277 -0.27233815 0.63378072
0.77641845 -0.23423804 0.61882013
0.79051006 -0.23566052 0.61566556
0.78337348 0.24483888 0.61794937
0.79966295 0.24257515 0.61109495
1.7878846 0.21868467 0.63548559
1.8076276 0.21911377 0.63404143
0.78797376 0.25705007 0.61034381
0.77109981 -0.24935219 0.6785028
0.83411396 -0.24621151 0.66982144
0.86052406 -0.24948718 0.68093175
0.91864955 -0.24942802 0.6815722
0.96347928 -0.25343141 0.67950612
1.0063579 -0.25455397 0.68913376
1.0564754 -0.25115824 0.68363845
1.1128055 -0.25638109 0.68783826
1.1470649 -0.25556296 0.68724942
1.2152621 -0.25581053 0.68218786
1.2504232 -0.25885049 0.68730348
1.3060884 -0.25293463 0.69809717
1.3642164 -0.26174703 0.68635398
1.3989149 -0.25631061 0.69699615
1.4687624 -0.26058081 0.69457811
1.5071692 -0.26170009 0.69834137
1.5627257 -0.25870779 0.69006711
1.6030076 -0.26613978 0.69763303
1.6611018 -0.25912091 0.70000798
1.707741 -0.263767 0.69924116
1.7683644 -0.26592347 0.70305866
1.7903576 -0.2700035 0.70186621
0.77432168 -0.22981854 0.67153656
0.80305874 -0.22312485 0.68304884
0.86076474 -0.2297136 0.68347532
0.91895556 -0.22711261 0.68618745
0.96357608 -0.22519249 0.68987548
1.013847 -0.23342706 0.6885581
1.0592582 -0.24028511 0.68732673
1.1164147 -0.22698194 0.69469452
1.1661141 -0.23747709 0.69659913
1.2133297 -0.23570423 0.68726641
1.2633905 -0.23245268 0.69537306
1.3150162 -0.22988111 0.69582009
1.3627478 -0.23991223 0.69420886
1.4159896 -0.22743355 0.69922811
1.4613534 -0.2298459 0.70199466
1.5153435 -0.23825587 0.69362867
1.5623387 -0.22870085 0.70023626
1.6105283 -0.23624338 0.70221621
1.6602882 -0.22281477 0.70671052
1.7084571 -0.2341385 0.71045899
1.7639674 -0.22337298 0.70312345
1.7925267 -0.22141908 0.70385391
0.77506065 -0.16555707 0.67869657
0.79280007 -0.16978632 0.67442942
0.87221003 -0.17647555 0.69197416
0.91337323 -0.17144875 0.69258726
0.95495641 -0.18812273 0.69355917
1.0071428 -0.16918525 0.69413269
1.0670056 -0.17683928 0.69526684
1.113884 -0.18429041 0.69617862
1.1703333 -0.17608517 0.69699818
1.2104282 -0.17798011 0.69770539
1.2541199 -0.18041383 0.69848198
1.3295848 -0.1843188 0.69981873
1.3478721 -0.15972319 0.69972861
1.40714 -0.15607113 0.70066947
1.4610766 -0.17598607 0.70190221
1.5222577 -0.18437037 0.70307046
1.5814773 -0.16216269 0.70370978
1.6175895 -0.17395733 0.70634496
1.657411 -0.16428792 0.70915353
1.711175 -0.16936016 0.70798063
1.7653209 -0.1748634 0.70690709
1.7937896 -0.18218373 0.69763678
0.77531254 -0.12560286 0.67892116
0.80532658 -0.11979124 0.68262845
0.86020517 -0.11820935 0.69082731
0.92722929 -0.11711867 0.69194055
0.97290552 -0.11505055 0.69267774
1.0227174 -0.12935084 0.69375008
1.0474561 -0.11092372 0.69386888
1.1138091 -0.12437261 0.69520634
1.1554275 -0.13321339 0.69605184
1.2222669 -0.12000791 0.69696569
1.2674953 -0.1250505 0.69781047
1.2983452 -0.12885702 0.69839269
1.362893 -0.12046573 0.69934589
1.4135648 -0.12674157 0.7003026
1.4610091 -0.12552825 0.70108348
1.522666 -0.12779924 0.70292503
1.5661561 -0.12213603 0.70756584
1.6069032 -0.11545645 0.70510179
1.6590704 -0.12541848 0.70809305
1.7102444 -0.12120892 0.70865887
1.764508 -0.12633584 0.70090032
1.7937981 -0.11966062 0.70066202
0.77840054 -0.071341641 0.67693108
0.81358612 -0.065682024 0.6835295
0.84700727 -0.068831004 0.68980443
0.90522456 -0.075535938 0.69089538
0.95239127 -0.062532306 0.69148058
1.0150175 -0.069545522 0.69265085
1.0635078 -0.076187693 0.69357675
1.105028 -0.073105134 0.69422728
1.2164997 -0.078339934 0.6961931
1.2702011 -0.076318786 0.69706637
1.3067789 -0.078790411 0.69772363
1.3692951 -0.068114944 0.69860542
1.4025878 -0.076146834 0.69929737
1.4620587 -0.065765955 0.70013261
1.5134724 -0.072029226 0.70316571
1.5670917 -0.077568434 0.70580095
1.6087155 -0.071564756 0.70640582
1.6669923 -0.06364122 0.70470273
1.7053634 -0.075443402 0.7059238
1.7654647 -0.07342118 0.6968658
1.7972389 -0.067655265 0.69313288
0.77950752 -0.027938616 0.68083221
0.80828488 -0.020652529 0.68220872
0.86345744 -0.016468052 0.68923348
0.91140652 -0.018182684 0.69007021
0.96747661 -0.02394639 0.69110972
1.0161064 -0.024903469 0.69194573
1.0653917 -0.029880881 0.69285804
1.1100911 -0.028002346 0.69358188
1.1653486 -0.020652017 0.69439507
1.2195586 -0.025984205 0.69539613
1.2571167 -0.021894427 0.69596362
1.3118025 -0.029215803 0.69700497
1.3641843 -0.019673895 0.69773412
1.4191536 -0.011718121 0.7014814
1.4639808 -0.021803007 0.70307374
1.5134754 -0.028824441 0.70407093
1.5605801 -0.027720379 0.70412707
1.6114402 -0.026415836 0.70576823
1.6616125 -0.02282651 0.7055558
1.711097 -0.017309906 0.70641607
1.7661304 -0.026417926 0.70131803
1.7972393 -0.019539906 0.68506622
0.78276968 0.010742676 0.67281419
0.80562282 0.034311157 0.68141294
0.8623147 0.027032837 0.68850917
0.90807152 0.039277539 0.6890828
0.95637727 0.03457161 0.68997407
1.0101094 0.03022564 0.69095123
1.0631956 0.018241713 0.69204116
1.1147625 0.027529798 0.69276065
1.1831567 0.031357229 0.69385266
1.2084172 0.028686173 0.69432211
1.271099 0.023675209 0.69546098
1.3192809 0.033365838 0.69783705
1.3614954 0.031766728 0.70144194
1.4096856 0.03066822 0.70135558
1.4515342 0.015435166 0.7015878
1.5131174 0.023987759 0.70297962
1.5715348 0.029581858 0.70387459
1.6136879 0.024029806 0.70516741
1.6641741 0.021082252 0.70463735
1.7194721 0.019745789 0.70626557
1.7622095 0.017349731 0.7018162
1.7988421 0.025696661 0.69030875
0.7791549 0.067402244 0.67658043
0.80644727 0.085154071 0.67785478
0.86316645 0.078646742 0.68768704
0.92180133 0.071361132 0.68879449
0.95753348 0.079818994 0.68926036
1.0253885 0.07797543 0.69043517
1.062686 0.074688978 0.6911177
1.1138233 0.069423363 0.69206589
1.1711763 0.074810676 0.69294626
1.2173035 0.083131641 0.69473642
1.2708182 0.078994945 0.69652551
1.312668 0.078227706 0.69757175
1.3649195 0.076137185 0.70032197
1.4180187 0.081135936 0.70044887
1.4665897 0.070623532 0.70170337
1.5160409 0.079515226 0.70262063
1.5594954 0.073300026 0.70353633
1.6210749 0.075405575 0.70282125
1.6608893 0.083810404 0.70473284
1.7092099 0.07408376 0.70468259
1.7654932 0.068338297 0.70413542
1.7982124 0.073924847 0.69506353
0.78193724 0.13137755 0.66514087
0.80255771 0.13139395 0.68239737
0.858163 0.13377455 0.68670934
0.90183115 0.12465101 0.68759388
0.96732187 0.13684542 0.68850124
1.0213858 0.13680582 0.68941414
1.0647334 0.13390332 0.6901927
1.1182011 0.12922411 0.69117063
1.1746894 0.13085201 0.69553751
1.2073067 0.13322754 0.69604927
1.2617147 0.11922958 0.69795865
1.311414 0.12350707 0.69667339
1.3743131 0.1320796 0.6991505
1.4045324 0.12641765 0.70105124
1.468002 0.12641001 0.70055854
1.5205839 0.12716654 0.70074552
1.559585 0.12319636 0.70215595
1.6221395 0.12415796 0.70250779
1.6707454 0.13170974 0.70295537
1.7120578 0.12061095 0.70503509
1.7623866 0.11880634 0.69746357
1.7994978 0.12960093 0.69369864
0.78499818 0.18859199 0.66598725
0.80857325 0.17456925 0.67737329
0.86530089 0.1787774 0.68610042
0.90985394 0.18230647 0.68679494
0.96542585 0.17994949 0.68777078
1.021543 0.17035706 0.68887311
1.0634509 0.17839876 0.68944991
1.1149848 0.18755329 0.6915471
1.1651559 0.17340808 0.69448459
1.2062049 0.17086031 0.696109
1.2670434 0.1754842 0.6959902
1.3085285 0.17160553 0.69762671
1.3729807 0.17539079 0.69816136
1.4109681 0.18102023 0.69723684
1.4664073 0.17701674 0.69833547
1.5167344 0.17856103 0.70015347
1.5647051 0.16755626 0.70095003
1.6085178 0.1654795 0.70323455
1.6652141 0.16923849 0.70456815
1.7128711 0.175624 0.70362794
1.7698601 0.17490484 0.70096666
1.7980897 0.17173937 0.69180644
0.78229117 0.22642259 0.67679513
0.80811858 0.23408927 0.67702645
0.86531341 0.23411328 0.67293578
0.91434836 0.23158078 0.67881417
0.96205759 0.23473303 0.6783005
1.0144967 0.23048182 0.68126488
1.0597025 0.23224257 0.68138468
1.1084479 0.2301257 0.68463039
1.1670957 0.23001188 0.68738085
1.2169271 0.22331186 0.69066828
1.2667636 0.22784491 0.68264383
1.3129537 0.22167651 0.68806577
1.3626342 0.22304663 0.68847066
1.4067605 0.22000706 0.68891799
1.4636719 0.22195427 0.69221801
1.5105548 0.21771973 0.69544387
1.5568746 0.22285818 0.69233692
1.611707 0.21986735 0.69126147
1.6683786 0.21722983 0.69283259
1.71566 0.21562642 0.69510299
1.7726301 0.21390393 0.69015384
1.8007946 0.21685517 0.68665278
0.78286028 0.25558636 0.66575772
0.81267154 0.25609577 0.66337454
0.84529018 0.25416031 0.66627246
0.76962316 -0.25279155 0.70936698
0.78840542 -0.24941678 0.71404159
1.4689895 -0.25339201 0.71017045
1.515434 -0.25137615 0.71092141
1.5613958 -0.2540262 0.7117399
1.6067171 -0.25430527 0.71250916
1.6867681 -0.25391614 0.71385354
1.7146055 -0.25964537 0.71441603
1.7762235 -0.2689212 0.74969494
1.7923913 -0.2733562 0.75154448
0.77100229 -0.23728298 0.70811832
0.8053149 -0.22339451 0.70245337
0.86393034 -0.22199328 0.69945234
0.91435266 -0.22025925 0.70027506
0.95983577 -0.22341864 0.70071006
1.0055015 -0.21863516 0.70178664
1.0597512 -0.21950512 0.70271605
1.1079077 -0.21856333 0.70351344
1.1636771 -0.21858849 0.70407522
1.2167727 -0.22863039 0.70551348
1.2710565 -0.23041965 0.70645851
1.3056166 -0.22820316 0.70700562
1.3587701 -0.23376566 0.70799267
1.4101069 -0.22439504 0.70870697
1.4611158 -0.22817971 0.709629
1.5156857 -0.21574248 0.71034825
1.56742 -0.21865708 0.71126831
1.602734 -0.22600171 0.7119832
1.6600388 -0.24210449 0.71321112
0.81503475 -0.16810364 0.69775403
0.86461222 -0.16486883 0.69853812
0.91176331 -0.16411631 0.69932157
0.9634608 -0.17221916 0.70032501
1.0156116 -0.1633632 0.70106155
1.0685791 -0.16647616 0.70200568
1.1148146 -0.17685467 0.70295399
1.1660162 -0.17611769 0.70380604
1.2181582 -0.16443998 0.70449656
1.2710013 -0.16525044 0.70540136
1.308202 -0.18010224 0.70626974
1.3615267 -0.17506857 0.70708793
1.4016813 -0.16605246 0.70761931
1.4714961 -0.18319513 0.70907509
1.5180956 -0.17301285 0.70969641
1.5548037 -0.17295668 0.71031481
1.5973939 -0.19497168 0.71139026
0.80897605 -0.12107645 0.69688958
0.86439049 -0.12649727 0.69791245
0.89968538 -0.12140122 0.69842541
0.97183394 -0.12418748 0.69968796
1.0135714 -0.12920222 0.70047361
1.05742 -0.13038991 0.70123255
1.111274 -0.11654566 0.70191687
1.1647069 -0.12303371 0.70292372
1.2163501 -0.12591213 0.70384169
1.2674544 -0.11949772 0.70459998
1.3127738 -0.1161551 0.70531046
1.3561661 -0.12235192 0.70614308
1.4148654 -0.12869853 0.70723635
1.4483972 -0.12577927 0.70775485
1.5040565 -0.11410931 0.70850492
1.5512692 -0.14351314 0.70977807
0.81649709 -0.06924174 0.69590151
0.86418593 -0.072514176 0.69703412
0.91468489 -0.059613049 0.6976772
0.96364367 -0.070824802 0.69868505
1.0160524 -0.07377293 0.69961709
1.0803028 -0.07476043 0.70071721
1.1130887 -0.072405338 0.70123214
1.1556084 -0.076843679 0.70202154
1.2179022 -0.067840919 0.7029267
1.2606622 -0.074321136 0.70375311
1.3130347 -0.066399604 0.70450866
1.3530897 -0.072919309 0.70529008
1.413608 -0.073619105 0.70632255
1.4631882 -0.089112192 0.70741028
0.83664083 -0.020546362 0.69572723
0.85941374 -0.027213428 0.6962195
0.90635729 -0.023039663 0.696944
0.9760921 -0.037988462 0.69836295
1.0040442 -0.02675247 0.69865245
1.0665592 -0.018999763 0.69958156
1.1176776 -0.02667095 0.7005685
1.1803718 -0.021505423 0.70154256
1.2066706 -0.026328504 0.70206451
1.2596807 -0.030854275 0.7030322
1.3196045 -0.021446452 0.70389092
1.351428 -0.016248878 0.70434368
1.3953356 -0.039202385 0.7054565
0.8227576 0.029466849 0.69468254
0.85750592 0.019582827 0.69542891
0.91743124 0.016693756 0.69648689
0.96811831 0.02213503 0.69725394
1.0174608 0.029832665 0.69796175
1.0758681 0.045353282 0.69869578
1.1089282 0.018871292 0.69968271
1.1600213 0.022958599 0.70047861
1.2118208 0.034271955 0.70116937
1.2724891 0.032576706 0.70222044
1.3131204 0.018005874 0.70314211
0.81238139 0.076559991 0.69356453
0.86289871 0.086848438 0.69442987
0.91579318 0.079218581 0.69544601
0.96158183 0.091899939 0.69601303
1.0156748 0.074348897 0.69721019
1.0526706 0.081468515 0.69771904
1.1093613 0.077927552 0.69873291
1.1761067 0.079874367 0.69982767
1.2142717 0.080292538 0.70046484
1.2523448 0.064088076 0.70136988
0.81576848 0.11293476 0.69312495
0.86362207 0.13481343 0.69366473
0.93674517 0.12044507 0.69513136
0.96394563 0.13384436 0.69537306
1.0093577 0.10565627 0.69659621
1.0652745 0.12068842 0.69729608
1.1145921 0.13061564 0.69796735
1.155218 0.12188463 0.69879442
0.83372104 0.16386543 0.6926893
0.87139547 0.17807025 0.69309479
0.90867376 0.17377928 0.69379336
0.95563889 0.18267041 0.69444168
1.019461 0.18424635 0.69549292
1.0586449 0.18603951 0.69612515
1.1050195 0.16072077 0.69731802
0.78239059 0.24378026 0.70383555
0.81118453 0.23631439 0.6989463
0.87016857 0.23184372 0.69220275
0.91144109 0.2283019 0.69295651
0.96853137 0.21387678 0.69415355
1.0175503 0.22037929 0.69487524
1.0433611 0.21860389 0.69533956
1.7862196 0.21862425 0.73193598
1.8009952 0.21183121 0.73858768
0.78634989 0.25879696 0.7185024
0.79816473 0.25848624 0.721066
0.76927221 -0.24898496 0.75654376
1.772105 -0.27147549 0.78643823
1.7909012 -0.25985932 0.81153196
0.77222061 -0.2315836 0.77102244
0.78715622 -0.23637468 0.76420212
0.78133225 0.24992165 0.74421418
0.79663253 0.23750542 0.74272043
1.7851014 0.220824 0.79951364
1.7991538 0.21946047 0.78771919
0.79823804 0.25902122 0.75527
0.77277267 -0.24950628 0.82530946
1.7742614 -0.27025238 0.84301674
1.7903588 -0.27627796 0.83119428
0.78375781 -0.22971839 0.82568634
0.7872318 -0.23839699 0.82456422
0.77982509 0.24492528 0.82261455
0.79697216 0.24204434 0.80670631
1.7843477 0.22002475 0.8507309
1.7957174 0.21296677 0.83857059
0.79674363 0.2589123 0.81423634
0.76770246 -0.24810593 0.87553662
0.78320849 -0.25054249 0.87827444
1.7731993 -0.275217 0.88896656
1.7886295 -0.27203864 0.89761943
0.77442586 -0.22856379 0.88155228
0.78605497 -0.23942405 0.89063179
0.78109252 0.24281989 0.86280739
0.78900754 0.23961779 0.88189608
1.7829202 0.21092765 0.90844369
1.8015959 0.2124196 0.87151939
0.78200567 0.26103956 0.87174982
0.79849422 0.26079068 0.86842412
0.77395761 -0.24974754 0.91139221
1.7712725 -0.27209353 0.94788605
1.7872103 -0.26549146 0.93384725
0.76357186 -0.24091217 0.93517554
0.78561497 -0.23122361 0.90038162
1.7825938 0.22627516 0.95327508
1.7974 0.22266839 0.93788296
0.78091192 0.26184997 0.91853839
0.7955122 0.26045233 0.91160637
0.77033782 -0.24868663 0.9721002
0.78360701 -0.24799734 0.96733177
1.7717236 -0.27451801 1.0034379
1.7879112 -0.27062634 0.99138951
0.76687443 -0.23191781 0.96227491
0.78412366 -0.23408097 0.96467346
0.77738667 0.24993657 0.97164446
0.79151261 0.24285352 0.96307904
1.7817111 0.22096564 0.99515545
1.8014905 0.22079086 0.99292898
0.77779579 0.25885391 0.96319985
0.79588068 0.26223144 0.95521891
0.768543 -0.24805714 1.0067005
1.7691977 -0.26807553 1.0367576
1.7844682 -0.26600388 1.037971
0.76393318 -0.22632949 1.0084373
0.78165066 -0.2263346 1.03716
0.77644312 0.24661991 1.0204021
0.79811049 0.24453686 1.0168437
1.7808 0.21848732 1.0434722
1.7951245 0.21961096 1.0409701
0.77721834 0.26176021 1.0014074
0.79634964 0.26348317 1.0358082
0.76369512 -0.24703044 1.0602596
1.7722524 -0.25470343 1.1045513
1.7863762 -0.26605648 1.0818107
0.76870561 -0.22845154 1.062163
0.78317869 -0.23444009 1.0648978
0.78948057 0.24651125 1.065467
1.791073 0.22445297 1.0828123
0.77915728 0.26415104 1.0458131
0.78876889 0.26283324 1.0610121
0.76464307 -0.24619041 1.1202725
0.86517227 -0.24348265 1.127036
0.90386045 -0.24453968 1.1329091
0.94751835 -0.24589869 1.1289576
1.0460919 -0.24805662 1.1311167
1.1028383 -0.24811999 1.1337683
1.1476419 -0.25100189 1.1318477
1.2038639 -0.25326496 1.1447982
1.2538269 -0.25326326 1.1327732
1.3102262 -0.2533507 1.1447116
1.3650454 -0.25310788 1.1440016
1.4138908 -0.25626114 1.1396092
1.44559 -0.25500056 1.1387142
1.5043497 -0.25443101 1.1460079
1.5536861 -0.24943818 1.1541718
1.6080651 -0.2576749 1.1423106
1.6536427 -0.26121739 1.140725
1.7028335 -0.25739774 1.1480008
1.7635223 -0.2645402 1.1430979
1.7837912 -0.2647588 1.144364
0.76356864 -0.22210298 1.1147702
0.79644597 -0.22683288 1.1297696
0.85210168 -0.22544788 1.1304659
0.88527656 -0.22010292 1.137454
0.95664942 -0.22530474 1.1334826
1.0098438 -0.2235298 1.1333836
1.0517974 -0.22435039 1.1356207
1.1137077 -0.21440749 1.1437947
1.155037 -0.22876479 1.1393079
1.1943049 -0.23353407 1.1403592
1.2532837 -0.22333376 1.1426077
1.3040223 -0.22704814 1.1476914
1.3582567 -0.22450338 1.1477097
1.3991033 -0.22277839 1.146413
1.4502897 -0.23219225 1.1486027
1.4986429 -0.2278538 1.1469998
1.5557703 -0.22713998 1.1534193
1.5967594 -0.22556463 1.1522659
1.6516567 -0.21800688 1.1568407
1.6982415 -0.22746468 1.1552088
1.7535275 -0.22675751 1.1548879
1.7830135 -0.21045998 1.1488684
0.76510775 -0.15507913 1.1268022
0.78687334 -0.16509148 1.1342108
0.85847819 -0.15944186 1.13899
0.9099865 -0.16927645 1.1400185
0.94620192 -0.16006871 1.1404804
1.0087428 -0.16433127 1.1416047
1.0519218 -0.17701791 1.1425388
1.0998353 -0.17478727 1.1433111
1.1566788 -0.17103121 1.1442094
1.2026417 -0.17191657 1.1472929
1.2564837 -0.16281271 1.1495131
1.3008535 -0.17124127 1.1505157
1.3489671 -0.16819857 1.1518601
1.3992258 -0.16775748 1.1505424
1.4511036 -0.17303064 1.1541244
1.5046525 -0.16414639 1.1520863
1.5556074 -0.17392579 1.1553661
1.6017866 -0.16230118 1.1545271
1.6553975 -0.16962752 1.1556118
1.7033764 -0.17408988 1.1566107
1.7565655 -0.17182148 1.15306
1.7835587 -0.16621257 1.1415935
0.76619267 -0.12270956 1.1264262
0.7969259 -0.12163972 1.1335182
0.86760771 -0.11212821 1.1383773
0.89618886 -0.11357611 1.1388831
0.94279432 -0.11571456 1.1397041
1.0069047 -0.12183796 1.1408851
1.0564883 -0.12205721 1.1417254
1.0850589 -0.1222531 1.1422105
1.1599402 -0.12489166 1.1435167
1.1961318 -0.11796769 1.1489298
1.2448511 -0.12422201 1.1497549
1.292824 -0.11162141 1.1494141
1.3533503 -0.11205752 1.1494391
1.4070523 -0.11801906 1.1501551
1.4507511 -0.1196764 1.1513969
1.4979419 -0.12023093 1.1518965
1.5554339 -0.12650657 1.1557204
1.6036277 -0.11622444 1.1536148
1.649067 -0.12300087 1.1561911
1.7052507 -0.1163417 1.1558557
1.761193 -0.1193473 1.1539454
1.7865152 -0.11482055 1.142995
0.77014482 -0.068433404 1.1234959
0.79132378 -0.066369437 1.1340386
0.86270559 -0.060764216 1.1374623
0.89841735 -0.074070647 1.1382804
0.95863044 -0.071065873 1.1392477
1.0061815 -0.074181236 1.1401006
1.0527822 -0.062851705 1.1407033
1.1058615 -0.066546403 1.1450989
1.1518338 -0.077307642 1.1453609
1.1978774 -0.071385764 1.1464171
1.258868 -0.076690838 1.1466982
1.3020405 -0.061230037 1.1469998
1.3535606 -0.069338031 1.1487166
1.4047252 -0.067852147 1.1504755
1.450045 -0.064059988 1.1512481
1.5030389 -0.074183263 1.150013
1.5514936 -0.057642683 1.152161
1.6040914 -0.075634554 1.1532706
1.6592761 -0.06841597 1.1540847
1.7017465 -0.06647899 1.1548396
1.7554584 -0.073080041 1.1531321
1.7846632 -0.076012701 1.1480545
0.77039886 -0.024317231 1.1197907
0.79436469 -0.020635922 1.128479
0.85507679 -0.010943676 1.1365261
0.89556432 -0.024031542 1.1374214
0.95199215 -0.020822391 1.1383216
1.0101649 -0.014039168 1.1423686
1.0474073 -0.024868863 1.1441251
1.1049509 -0.013646591 1.1425061
1.1532228 -0.023694053 1.1443435
1.2014908 -0.021343665 1.1454064
1.2583805 -0.019031368 1.1469024
1.3008527 -0.013805393 1.148681
1.3437716 -0.020397853 1.1481006
1.4006553 -0.017548263 1.1504256
1.4517975 -0.024067264 1.1509354
1.5053967 -0.023691252 1.1524134
1.5443317 -0.022194922 1.1517783
1.599575 -0.018573636 1.1542157
1.6560674 -0.017248072 1.1535834
1.7049143 -0.018601663 1.15701
1.7574874 -0.029491508 1.1495892
1.786889 -0.022278517 1.137923
0.76970756 0.032155551 1.1254274
0.79454839 0.040837873 1.1230448
0.8581028 0.033433847 1.1358578
0.92016244 0.03287749 1.1386343
0.96385741 0.033446513 1.1426461
0.99518239 0.02916491 1.1414157
1.0517914 0.032486368 1.1428111
1.0959072 0.038751416 1.1466646
1.1521621 0.031141954 1.1447884
1.1952109 0.028611854 1.1457525
1.2468085 0.025357518 1.1465611
1.3090245 0.029066589 1.1440663
1.3548816 0.023907211 1.1466881
1.4027305 0.029189816 1.1469928
1.4527646 0.026565989 1.1497561
1.5042915 0.019520611 1.1495668
1.5456787 0.024116589 1.1505593
1.6084899 0.030876197 1.1513129
1.6551861 0.034146935 1.1517977
1.7052513 0.024246257 1.1525942
1.7584046 0.026862789 1.1486717
1.7867608 0.02054383 1.1395001
0.77388906 0.087097563 1.1233717
0.80805707 0.082983896 1.1305113
0.84915245 0.08940497 1.1354878
0.90042925 0.076568894 1.1401732
0.94697952 0.074776538 1.1401278
0.99915302 0.084401436 1.1403606
1.0527638 0.087778457 1.1413198
1.1040729 0.084760837 1.1431082
1.1531404 0.072845086 1.1442112
1.2058071 0.08241114 1.1440586
1.2544961 0.079774424 1.1460294
1.3070549 0.078615867 1.1451582
1.3479465 0.08021082 1.1464925
1.4021665 0.082893245 1.1459566
1.4496201 0.08574903 1.1508882
1.5087132 0.073554054 1.1514782
1.5499383 0.080307983 1.1511501
1.6014199 0.073532157 1.1511904
1.6519371 0.07667812 1.1515003
1.7087742 0.085698366 1.1536645
1.761627 0.075416379 1.1499202
1.7926532 0.085892767 1.1379321
0.7739805 0.13240978 1.1251554
0.8025564 0.12856033 1.1325825
0.85601306 0.13922723 1.1378611
0.90793991 0.13606571 1.1400396
0.95151401 0.12321413 1.1391066
1.0000473 0.13860749 1.1396759
1.0448793 0.12891096 1.1374621
1.1156579 0.12847124 1.1425951
1.1478977 0.12295776 1.1417987
1.2006528 0.12428879 1.1430322
1.2521951 0.13165431 1.1443559
1.3099867 0.13398834 1.1452931
1.349345 0.12667052 1.1464583
1.407658 0.13419949 1.1467085
1.452376 0.1308122 1.1488938
1.508804 0.13099256 1.1462393
1.5538635 0.1295799 1.150053
1.6076418 0.12207159 1.1505086
1.6514347 0.12144322 1.1509932
1.6993532 0.12562841 1.1511384
1.7605305 0.12536564 1.1484026
1.7896329 0.12051392 1.1349891
0.77291965 0.16568877 1.119457
0.80187774 0.18041629 1.1302679
0.84986901 0.18757145 1.1351869
0.90815175 0.17718561 1.138501
0.95060015 0.1772034 1.1378407
1.0022666 0.17925423 1.1397498
1.0628848 0.18071428 1.1431187
1.1131564 0.18597907 1.1408167
1.160645 0.18628971 1.1413523
1.2045615 0.17881531 1.1433611
1.2440641 0.18379995 1.1428003
1.302512 0.18188517 1.1432441
1.3558885 0.18127508 1.145614
1.3978966 0.18289426 1.1466719
1.4544408 0.17267735 1.1474165
1.5064427 0.17342287 1.1460576
1.5520661 0.17631145 1.1496749
1.6092449 0.17886864 1.1514676
1.6510308 0.17848636 1.1496385
1.7075971 0.17655464 1.1521724
1.762355 0.18078214 1.1493917
1.7950923 0.17987481 1.1426396
0.77428746 0.23217319 1.1228055
0.80019033 0.23716213 1.1250486
0.85194671 0.23020852 1.1283151
0.90596497 0.23971 1.1294678
0.96418178 0.23343386 1.1285161
1.002069 0.2348032 1.1312108
1.0484288 0.23708269 1.1306784
1.1025455 0.23504373 1.133363
1.1545111 0.23185591 1.1318198
1.1986748 0.2325035 1.1335288
1.2590916 0.23244129 1.1328336
1.3098718 0.23344871 1.1317341
1.3522464 0.22578888 1.1402433
1.3965999 0.23375036 1.1299999
1.4519143 0.23320419 1.1353152
1.5013356 0.22172526 1.1394163
1.5556512 0.22039086 1.1370373
1.6037726 0.22659115 1.1397526
1.6525648 0.22084689 1.1411036
1.7074437 0.21957861 1.1396497
1.7609839 0.22190441 1.1450287
1.788797 0.22639805 1.1390297
0.77681041 0.26482883 1.1125561
0.79450548 0.26309794 1.1183511
0.85887849 0.26091784 1.1222539
0.90397525 0.25955951 1.1210675
0.99568427 0.25686014 1.1226559
0.76426792 -0.24523988 1.1800854
1.7641538 -0.26215047 1.1874992
1.7847385 -0.25916901 1.1867054
0.76843834 -0.22580944 1.1680019
0.78836632 -0.21628058 1.1470964
0.85882914 -0.21313104 1.1467463
0.88580954 -0.20913716 1.1471369
0.94841564 -0.21471916 1.1478943
0.99569559 -0.21190521 1.1490359
1.0399523 -0.22280541 1.1499591
1.1000465 -0.22505036 1.1510096
1.1523433 -0.22219814 1.1518459
1.2087225 -0.20712568 1.152553
1.2429429 -0.22931992 1.1534899
0.80984962 -0.17929824 1.1453718
0.85734296 -0.15961711 1.145854
0.90352547 -0.17169173 1.1468289
0.95213091 -0.16947284 1.147613
1.0079737 -0.1616239 1.148428
1.065195 -0.17763051 1.1496531
1.1034291 -0.15520437 1.1499349
1.1593635 -0.17130853 1.1511396
1.1927817 -0.17791152 1.1518106
0.80696964 -0.11496054 1.1442804
0.85042024 -0.12633429 1.145198
0.9072783 -0.11561917 1.1459836
0.95215321 -0.11887331 1.1467935
1.0022631 -0.10455126 1.1474071
1.0549034 -0.10858157 1.1483603
1.0935103 -0.13574262 1.1494519
1.1538905 -0.1421421 1.1505744
0.81081629 -0.074574739 1.1436908
0.85610962 -0.071008921 1.1443973
0.88549387 -0.069000423 1.1448604
0.9512229 -0.064993694 1.1459048
1.0106044 -0.062172547 1.146861
1.0349755 -0.060374353 1.1472429
1.0933554 -0.091812141 1.1487374
0.79605591 -0.019010827 1.1425413
0.85025609 -0.015518432 1.1433992
0.90282845 -0.017272688 1.1443146
0.95723951 -0.019019775 1.145261
0.99534786 -0.036792655 1.1461921
0.80888498 0.036080852 1.141865
0.85324836 0.033027977 1.1426629
0.89697731 0.02410442 1.1435454
0.80265689 0.074916758 1.1411304
0.85277271 0.068935014 1.1420729
0.79013145 0.11495513 1.1402702
0.77417874 0.24998452 1.1566143
0.79112768 0.24624412 1.1538165
1.790084 0.22977939 1.1792767
0.77637804 0.26592335 1.1534102
0.79570889 0.26329035 1.1615295
