# .PCD v0.7 - Point Cloud Data file format
VERSION 0.7
FIELDS x y z
SIZE 4 4 4
TYPE F F F
COUNT 1 1 1
WIDTH 1315
HEIGHT 1
VIEWPOINT 1.99448 -0.255118 0.138346 0.505635 -0.507035 -0.489638 0.497498
POINTS 1315
DATA ascii
1.5639772 -0.3327989 0.08001937
1.5598744 -0.27317226 0.082936108
1.5795321 0.15603662 0.081743613
1.5888165 0.15883806 0.090502605
1.5785714 0.21582118 0.085623182
1.5281126 -0.33375812 0.11573273
1.5629658 -0.33308119 0.10543105
1.5105842 -0.32646573 0.13735084
1.5732827 -0.27648884 0.092610583
1.5389282 -0.2686235 0.11681422
1.5637792 -0.27412438 0.11950841
0.41327858 -0.061915096 0.13733077
0.44424403 -0.045828693 0.13782595
0.40342438 -0.022217873 0.13389964
0.40978169 0.029661879 0.1347499
1.5573138 0.15568887 0.12991318
1.5908933 0.15522988 0.11324444
1.5277259 0.2118209 0.15012048
1.5626657 0.21678188 0.12827489
1.608778 0.19236772 0.15229562
1.5234994 -0.33490801 0.15397832
1.5633842 -0.33417672 0.15699084
1.6319882 -0.33362132 0.17379497
1.6540018 -0.33556575 0.16981611
0.5185951 -0.29734319 0.18251337
1.5199851 -0.30464062 0.16694219
1.5579034 -0.30348948 0.16855022
1.6145574 -0.3014802 0.16263777
1.6510881 -0.31234115 0.17367557
0.52413297 -0.27836204 0.17962857
1.5177308 -0.27422938 0.14451826
1.5661426 -0.27480546 0.14627863
1.6042385 -0.27815053 0.17203742
0.40078139 -0.10133283 0.15687628
0.40990984 -0.056970119 0.15181819
0.46691203 -0.048656311 0.17608109
0.40850651 -0.011044367 0.15289652
0.46749938 -0.030533709 0.1729957
0.40529513 0.029801024 0.15403067
1.5183797 0.1656467 0.16857727
1.5608711 0.15919444 0.16743384
1.6172791 0.16126196 0.17346668
1.6544988 0.15859565 0.18045443
0.53119099 0.2000144 0.18907709
1.526719 0.19150692 0.17470776
1.5544806 0.19230442 0.17916672
1.6148876 0.18767299 0.16373175
1.6508756 0.19009611 0.17534013
0.53121567 -0.29371235 0.2123183
0.56798983 -0.29308042 0.2212377
0.62966752 -0.29584616 0.22818594
0.66791999 -0.28986683 0.22043292
0.71949565 -0.29608867 0.22219823
0.77240324 -0.29337719 0.22743954
0.81194532 -0.29022565 0.22232303
0.87649131 -0.29863241 0.22242507
0.91523135 -0.29211146 0.22061677
0.95198107 -0.30044267 0.22305481
1.0151346 -0.30030027 0.22560383
1.0695275 -0.29659778 0.22498855
1.1017098 -0.2987718 0.21864577
1.175841 -0.301543 0.22181988
1.222137 -0.29749307 0.22066508
1.2815595 -0.29967195 0.23017113
1.3112488 -0.29612288 0.22711572
1.3636881 -0.29757148 0.22313409
1.4166746 -0.29568163 0.22094762
1.4715616 -0.29754451 0.22581445
1.5232819 -0.30423579 0.2260448
1.5440727 -0.3046174 0.2111814
0.53178203 -0.27554917 0.22175762
0.5524267 -0.26167369 0.22950979
0.59922266 -0.27663141 0.2209243
0.67129147 -0.27716172 0.22193351
0.70641267 -0.27473605 0.22053792
0.77846444 -0.27489713 0.23488654
0.82586563 -0.27567109 0.23029988
0.8639127 -0.27638891 0.23236905
0.91263664 -0.2777983 0.2256861
0.95734251 -0.27798077 0.22727968
1.0249836 -0.28157112 0.21917927
1.0910091 -0.2822938 0.21890937
1.101581 -0.28052473 0.224567
1.15911 -0.28158504 0.22620344
1.2021248 -0.28243223 0.23066421
1.4662573 -0.24048856 0.2407873
1.5176816 -0.25503531 0.23112071
1.5434096 -0.24772297 0.21940553
0.52764583 -0.21093933 0.22933814
0.54372561 -0.23474626 0.23846351
1.3800455 -0.18303277 0.24209294
1.4236623 -0.21539706 0.24137679
1.4708815 -0.21970372 0.24111985
1.5157447 -0.20796549 0.23298097
1.5441725 -0.21692088 0.22952864
0.52782261 -0.16293839 0.22966054
0.54539776 -0.13996279 0.2330724
1.3120893 -0.13433021 0.24317965
1.3644652 -0.15753825 0.24258377
1.4226192 -0.14843111 0.24251041
1.474275 -0.15097323 0.24226591
1.5279759 -0.15517084 0.23483326
1.5442991 -0.16106279 0.23205195
0.52665854 -0.11633592 0.23049229
0.54470229 -0.10489196 0.22939184
1.236414 -0.083851814 0.24432646
1.2694094 -0.098769903 0.24394603
1.3100941 -0.11974275 0.24343351
1.3571889 -0.12060427 0.24323514
1.4107659 -0.11347748 0.24314626
1.4674977 -0.10809691 0.2430156
1.517199 -0.10821524 0.23966861
1.5461352 -0.094195828 0.2299808
0.48066854 -0.04249911 0.20167032
0.52195263 -0.049669255 0.23285034
0.54586983 -0.053786702 0.22921352
1.2207236 -0.063089743 0.24473789
1.2734301 -0.052471038 0.24471131
1.3045341 -0.053176507 0.244578
1.3676833 -0.058745537 0.24423762
1.4055368 -0.055019848 0.24415271
1.4644547 -0.060975172 0.24382231
1.5172409 -0.05844155 0.23948501
0.48787534 -0.029962705 0.20063394
0.52323365 -0.023739778 0.22807254
1.1253959 0.005114574 0.2462604
1.1762365 -0.015089398 0.24572118
1.2657034 -0.0050561558 0.24554124
1.3164655 -0.0097181629 0.24526447
1.3634702 -0.0082360972 0.24510604
1.4136177 -0.017578209 0.24475272
1.4635488 -0.008290207 0.24471453
1.5181034 -0.0015616193 0.23856056
1.5472383 -0.012693588 0.24072741
0.52694404 0.047772493 0.24062839
0.54723883 0.030265525 0.22931679
1.0260987 0.060366623 0.24757995
1.0672861 0.043111451 0.24712811
1.1126876 0.044440985 0.24697334
1.1637621 0.031597555 0.24655735
1.218122 0.049299601 0.24664383
1.2703576 0.04237761 0.24632318
1.3159968 0.040822215 0.2461188
1.3647234 0.048991717 0.24606644
1.4091589 0.04920673 0.24589662
1.4597818 0.041384332 0.2455671
1.5139608 0.045271404 0.2379173
1.5439104 0.044515923 0.22301304
0.53387535 0.089835733 0.24272916
0.54658198 0.090915218 0.23407859
1.0106093 0.104311 0.24838163
1.0635617 0.10458937 0.24817967
1.1143405 0.098596983 0.24788038
1.1624265 0.096969344 0.24766526
1.2101573 0.10354664 0.24758989
1.2579035 0.10323779 0.24739835
1.3167162 0.091934003 0.24697813
1.3570654 0.091600083 0.24681503
1.422436 0.099137649 0.24668702
1.4642246 0.092608564 0.24641378
1.5203111 0.099200137 0.24345145
1.5490936 0.080612645 0.23945865
0.53217638 0.14189684 0.23838691
0.55047143 0.14166468 0.24192305
0.91355824 0.15001768 0.24953139
0.96113515 0.14259641 0.24922051
1.0129255 0.14473853 0.24905451
1.062795 0.13492055 0.24869423
1.123691 0.1426878 0.24858759
1.163018 0.14321534 0.24844301
1.2197952 0.14318819 0.24822095
1.2674446 0.13444558 0.24788752
1.3144181 0.1340919 0.24769822
1.3651142 0.13665165 0.24754353
1.403828 0.15064813 0.24762851
1.463367 0.14725108 0.24733883
1.5139319 0.15615912 0.23622949
1.5482219 0.15089116 0.24027823
0.53022432 0.19728447 0.2282429
0.55733895 0.1966539 0.23308879
0.61551273 0.19353929 0.23471802
0.65996337 0.19450578 0.23512772
0.71369326 0.19664617 0.23912838
0.76028335 0.19002056 0.23762327
0.81221735 0.19335532 0.2324539
0.86253834 0.1941891 0.23829955
0.91470802 0.18368289 0.24000333
0.96133018 0.19177093 0.23970711
1.0134834 0.19147545 0.24669252
1.0658948 0.18835174 0.23944697
1.114607 0.185625 0.23871292
1.1623486 0.18312053 0.24261589
1.2150604 0.18740386 0.23635533
1.2668974 0.1839256 0.24587217
1.3053873 0.18351379 0.23891199
1.3589457 0.18318622 0.23906001
1.407516 0.18249935 0.24036738
1.4645697 0.17838161 0.24081123
1.5258501 0.18201123 0.23210661
1.5494525 0.18215294 0.2307335
0.52631521 -0.29728401 0.24471761
0.55882597 -0.29387543 0.24359049
0.67027152 -0.29495582 0.24261515
0.70267761 -0.2935327 0.24396475
0.76208603 -0.29260033 0.24374858
0.81109488 -0.29301354 0.2427685
0.87159753 -0.28814617 0.24348576
0.9659909 -0.29171175 0.24350826
1.0208793 -0.29218099 0.24425784
1.0650072 -0.29414394 0.24431176
1.1023998 -0.29199082 0.24315138
1.1725811 -0.29538116 0.24234247
1.2190678 -0.29383498 0.24306352
1.2711955 -0.28978074 0.24390572
1.319114 -0.28818661 0.24468319
1.3716009 -0.29507282 0.24213879
1.4150907 -0.29363379 0.242884
1.4658692 -0.29510099 0.24266718
1.512651 -0.29798973 0.24468154
1.5456458 -0.30450225 0.2668249
0.53101051 -0.27320564 0.26142907
0.56163085 -0.26593846 0.24728149
0.61444092 -0.25767103 0.24691013
0.66305566 -0.265919 0.24695456
0.7132057 -0.27352867 0.24534504
0.76599967 -0.26891118 0.24470717
0.80792761 -0.26444495 0.24454695
0.86061335 -0.2607362 0.24585803
0.91352153 -0.26572016 0.24527077
0.96923578 -0.27154076 0.24390984
1.0226879 -0.26493353 0.24249171
1.0640934 -0.25567123 0.2451845
1.1235995 -0.25724587 0.24459378
1.1712235 -0.2633504 0.2447636
1.2214265 -0.2622661 0.24352536
1.2687558 -0.26158381 0.24464203
1.3023927 -0.25695986 0.2436506
1.3602357 -0.25192693 0.2435098
1.4096967 -0.25324687 0.24537915
1.4654789 -0.25693592 0.2450992
1.5178543 -0.26151335 0.24380361
1.5428966 -0.2521908 0.24138269
0.53253758 -0.21265085 0.26945075
0.56353104 -0.20867844 0.24914682
0.61527419 -0.20439191 0.24901718
0.66488314 -0.21354465 0.24780923
0.71908891 -0.2117368 0.24831609
0.76333964 -0.21629372 0.2463958
0.81579113 -0.21149793 0.24840133
0.86135304 -0.21810761 0.24696545
0.90372288 -0.21102741 0.24691954
0.97107852 -0.20170943 0.24612588
1.0193737 -0.20291176 0.24660502
1.0698422 -0.21033795 0.2459006
1.1125132 -0.21257678 0.24460432
1.1690195 -0.21395825 0.24583466
1.2179615 -0.20884039 0.24641788
1.2615106 -0.20586911 0.24467197
1.3140653 -0.20982054 0.24304518
1.3704691 -0.20696321 0.24565773
1.4199778 -0.21180212 0.24661136
1.4721578 -0.20321609 0.24827242
1.5123484 -0.21687956 0.24623151
0.53173828 -0.15632521 0.25769684
0.56007016 -0.15828934 0.24857181
0.61345637 -0.17077497 0.24911359
0.66784942 -0.15983322 0.25108498
0.71407092 -0.16596904 0.24792837
0.76477766 -0.16405928 0.24731599
0.81475687 -0.17100827 0.24843319
0.86683905 -0.16721544 0.24894904
0.90791547 -0.16667008 0.2492149
0.96214187 -0.15901324 0.24850696
1.0144004 -0.16712606 0.24791601
1.0642095 -0.15896854 0.24640688
1.1138867 -0.1613418 0.24662466
1.1625553 -0.15642586 0.24614237
1.2178615 -0.16671866 0.24693219
1.2656659 -0.15298413 0.24591261
1.3219157 -0.15616703 0.24793251
1.3619617 -0.16264555 0.24766697
1.3951321 -0.13682234 0.24969296
1.4780191 -0.16379499 0.24891448
1.5165662 -0.16207962 0.24751318
0.5329107 -0.10580717 0.2644842
0.56681776 -0.11691327 0.25063828
0.61640263 -0.12171413 0.24782752
0.66974175 -0.11406992 0.25118804
0.71550488 -0.11551758 0.25020325
0.76123917 -0.11356909 0.24911955
0.82576156 -0.11940973 0.24876918
0.86317599 -0.10354836 0.24790788
0.91793489 -0.10874903 0.24919626
0.96024656 -0.10977519 0.2484068
1.0166125 -0.099454537 0.24809627
1.0723836 -0.11577977 0.24717988
1.1175545 -0.10735586 0.24611379
1.1625806 -0.10437384 0.24839611
1.2268326 -0.10534263 0.2474411
1.2541723 -0.11038141 0.25006375
1.3099128 -0.1015871 0.25061992
1.3564765 -0.11247099 0.25025457
1.4151908 -0.11253975 0.25002426
1.4759315 -0.10063574 0.249988
1.4985061 -0.10754537 0.24978335
0.53293228 -0.064240716 0.26615548
0.56517184 -0.062638238 0.25109893
0.61642718 -0.064349487 0.25077954
0.66321719 -0.064873055 0.25005892
0.71514928 -0.066923819 0.24977346
0.76428473 -0.0649921 0.25041839
0.82040489 -0.061586708 0.2510553
0.8614397 -0.054776695 0.24857354
0.92127824 -0.066988967 0.25100043
0.95221579 -0.056327909 0.25019959
1.0164725 -0.05837062 0.2490544
1.0698478 -0.059300497 0.24711055
1.1199678 -0.052198909 0.24954838
1.168422 -0.059120573 0.24751057
1.2116116 -0.06205567 0.25041956
1.2594478 -0.036954209 0.25190708
1.3238381 -0.05029463 0.25143075
1.3512405 -0.06415844 0.25108993
1.4161059 -0.059012935 0.25092354
1.4561622 -0.069628306 0.25058812
1.5000808 -0.048256665 0.25077721
0.53504312 -0.02132939 0.27190137
0.55938506 -0.006648086 0.25299263
0.61923742 -0.015256159 0.25064409
0.66236019 -0.0074194912 0.25129592
0.71197748 -0.0098383036 0.25083214
0.76505876 -0.0096841864 0.25108621
0.81061757 -0.013207491 0.2514796
0.86448753 -0.013654497 0.24971393
0.91782308 -0.022230942 0.24832918
0.96065652 -0.0034282394 0.24933907
1.0154122 -0.010192823 0.25055912
1.0662328 -0.012556707 0.24825707
1.1136726 -0.015565969 0.25146088
1.1621536 -0.010639647 0.25273064
1.2223527 0.00050564483 0.2526837
1.264569 -0.013383456 0.25228465
1.3196932 -0.013692047 0.25206429
1.3655143 -0.014571702 0.2518706
1.4137716 -0.0064957011 0.25181848
1.4517343 -0.0080077983 0.25164485
1.5099286 -0.003421694 0.25128442
0.53420854 0.043336838 0.26624218
0.56235087 0.032605186 0.25193524
0.61584055 0.03711037 0.25196403
0.65917587 0.035652943 0.25203487
0.71176231 0.030629624 0.25076213
0.76496303 0.03703187 0.25311947
0.81434417 0.040349569 0.25057033
0.85339224 0.033990756 0.25239539
0.91315114 0.047443032 0.25193042
0.96395171 0.040736943 0.25265095
1.0099708 0.042723101 0.2513583
1.0611007 0.04263784 0.25316381
1.1032513 0.040586419 0.25382465
1.1672238 0.044326752 0.25363803
1.2134508 0.038829893 0.25336486
1.2617108 0.034993939 0.25311184
1.3119146 0.034259558 0.25290349
1.3626457 0.032812007 0.25268105
1.4105915 0.046549648 0.25272563
1.4698881 0.039720874 0.25237903
1.5073507 0.045359664 0.25202173
0.53376949 0.084272191 0.25715327
0.55667388 0.084079035 0.25568825
0.62487996 0.093277909 0.25314075
0.66783726 0.086893879 0.25286537
0.70825696 0.088488221 0.25273451
0.76773405 0.084892161 0.25129515
0.81150103 0.092272848 0.25201318
0.87296808 0.093122721 0.25178766
0.91235805 0.087454662 0.24995494
0.96585822 0.082204029 0.25124094
1.0158405 0.090610877 0.25500956
1.0616964 0.079760462 0.25464758
1.1200633 0.093024023 0.25464347
1.1587524 0.088725999 0.25442004
1.2146397 0.093258768 0.25427833
1.2629036 0.079587191 0.25385934
1.3610458 0.094587758 0.25372931
1.4018648 0.10764541 0.25379026
1.4603367 0.088950559 0.25324672
1.5211577 0.097536549 0.25315413
0.53550434 0.14431067 0.27524334
0.55973339 0.1353606 0.2555283
0.6044575 0.13470465 0.25391921
0.6582768 0.13918504 0.25340253
0.71521091 0.14366457 0.25265533
0.75915432 0.14076549 0.25292629
0.81011713 0.14113854 0.25261807
0.8596133 0.14324427 0.25192082
0.91831696 0.13518921 0.25528219
0.97630572 0.15083888 0.25617978
1.0156344 0.14284553 0.25589147
1.0665973 0.1395973 0.25563771
1.1274132 0.14882675 0.25555611
1.163306 0.14624444 0.25537238
1.2067813 0.14470954 0.25517687
1.2576299 0.14394362 0.25496548
1.31112 0.14879943 0.25483859
1.3586643 0.13883148 0.25448486
1.4056342 0.15040973 0.25449687
1.4635797 0.13429318 0.25399888
1.5111402 0.14083315 0.25391072
0.5329895 0.18881942 0.26888308
0.55370152 0.1856706 0.26223084
0.60553133 0.18805262 0.25536081
0.66958392 0.18183708 0.25326297
0.71217692 0.18977869 0.25351259
0.75677514 0.1832073 0.25503978
0.81372559 0.18128124 0.25343031
0.86037493 0.19073792 0.25282809
0.915802 0.1848041 0.25409505
0.97079957 0.18730243 0.25119227
1.0112206 0.18202537 0.25559416
1.0643647 0.18657398 0.25643882
1.1081781 0.18105292 0.25604656
1.1649562 0.17226316 0.25580484
1.2001989 0.17306693 0.25568083
1.2630233 0.17629908 0.25549015
1.3081157 0.17985189 0.2553741
1.4163356 0.17004296 0.25478628
1.4691037 0.17300044 0.25463018
1.5258436 0.17548576 0.27274373
1.5507785 0.17825477 0.27952793
0.53209949 0.21120633 0.28301424
0.52621603 -0.29962644 0.30218485
1.5286804 -0.30913764 0.32011473
1.5457726 -0.30927959 0.31730476
0.52752852 -0.27415356 0.31452492
0.54116261 -0.28282803 0.33718228
0.53263271 -0.20958796 0.31846493
0.53300786 -0.16568932 0.31669575
0.53360844 -0.1125572 0.31458679
0.53423047 -0.05396302 0.32378325
0.53580225 -0.0095693618 0.31729499
0.53659523 0.036647812 0.32407525
0.53863811 0.059840824 0.31370312
0.53563166 0.089777023 0.33289549
0.53920555 0.090390697 0.3186397
0.53634202 0.13276558 0.31904933
0.54006588 0.13874966 0.31758884
0.5350188 0.18334456 0.31956953
0.54330575 0.18595715 0.3339178
1.5329176 0.17991173 0.33036214
1.552188 0.18283661 0.33290601
0.53516257 -0.30238864 0.38611472
0.54108 -0.29380405 0.36416101
1.531045 -0.30813375 0.35978687
1.5459143 -0.3122901 0.36377788
0.53046846 -0.26079527 0.36240089
0.54121745 -0.28628278 0.36491966
0.53230429 -0.21219878 0.36191645
0.53209257 -0.16514491 0.36001322
0.5328573 -0.11452017 0.36966905
0.53445339 -0.065346844 0.36779726
0.53613007 -0.016259484 0.37223688
0.5370369 0.022998933 0.37673044
0.53866422 0.042114988 0.39528358
0.53569174 0.083939433 0.37202767
0.5392735 0.082436487 0.36866704
0.53665435 0.13435827 0.38655284
0.54035926 0.14111701 0.37731832
0.53507173 0.18081327 0.37576455
0.54392099 0.18685043 0.36777437
1.5334072 0.19066854 0.40100673
1.5499451 0.18437405 0.39039126
0.5363785 0.20950966 0.37944728
0.5403868 0.20912516 0.39805526
0.53414142 -0.30273291 0.4076997
0.5411576 -0.29948783 0.40684906
1.5307983 -0.3126457 0.41395369
1.5437165 -0.30631521 0.41854629
0.53033388 -0.26649672 0.41074976
0.54133689 -0.28894365 0.40464276
0.53260911 -0.22039004 0.41623351
0.53377283 -0.16766521 0.41129115
0.53465736 -0.1189013 0.41430247
0.53468466 -0.070052706 0.41817293
0.53551352 -0.018870555 0.42226383
0.53535044 0.027250314 0.42425859
0.53906035 0.05390536 0.43932527
0.5360055 0.089237995 0.42413202
0.5395124 0.082564563 0.42497528
0.53684151 0.13478775 0.42922306
0.54025471 0.12670389 0.41372532
0.53394115 0.18060039 0.43326056
0.5454793 0.1871095 0.42159593
1.5356756 0.17827256 0.4176245
1.5487533 0.18517977 0.43033352
0.54258728 0.20874797 0.41815764
0.52790928 -0.30108744 0.45679212
0.54154325 -0.29661441 0.48636788
1.5253199 -0.30712175 0.46382171
1.5440594 -0.3091853 0.45965132
0.52887046 -0.27338797 0.46436113
0.54156804 -0.28802198 0.45567808
0.53347766 -0.21417341 0.46715716
0.53389502 -0.16807248 0.46259716
0.53294611 -0.1229909 0.45547763
0.5359261 -0.06772045 0.46963611
0.53715396 -0.009663674 0.47167784
0.53566051 0.024917386 0.47199708
0.53875732 0.029585823 0.47070131
0.53588676 0.072494559 0.46708837
0.53995323 0.097748533 0.46527722
0.53699088 0.13638359 0.45800117
0.54061997 0.13344145 0.47198331
0.52860188 0.19437526 0.47118956
0.54267395 0.18633507 0.47213122
1.5513756 0.17719138 0.47360745
0.52878213 0.20715085 0.45973992
0.54521203 0.20785543 0.46848732
0.52925622 -0.30428013 0.51690423
0.54158413 -0.30027992 0.5116995
1.5306252 -0.30081436 0.51796162
1.5449634 -0.30601817 0.52094001
0.53009808 -0.26697767 0.50116444
0.54181039 -0.28831106 0.51458234
0.53258252 -0.22155999 0.50770003
0.53340912 -0.15603904 0.50514013
0.53371251 -0.12655769 0.50931948
0.53432834 -0.073543862 0.50217026
0.53608298 -0.014193096 0.51315165
0.53521681 0.024490962 0.51189649
0.53883672 0.026457019 0.5028286
0.53654039 0.07014367 0.51352412
0.53972733 0.072930858 0.51706833
0.53705502 0.12545478 0.51970243
0.54017448 0.14104834 0.50594831
0.53136706 0.19277932 0.51721859
0.54382563 0.18128236 0.51767057
1.5337716 0.17897844 0.53737998
1.5465947 0.18161228 0.51460618
0.53161216 0.20746747 0.50611949
0.5403856 0.20679428 0.53681827
0.52700222 -0.30273449 0.56721711
0.5418247 -0.29633608 0.55212039
1.5302677 -0.3120113 0.5686155
1.5452776 -0.31135648 0.56068712
0.52654409 -0.28416654 0.56161571
0.54201889 -0.28404304 0.5761382
0.52891707 0.19019467 0.56392819
0.55073786 0.19627488 0.57684481
1.5339305 0.17932206 0.57371056
1.5498747 0.18268505 0.58015752
0.53608823 0.20642346 0.56348795
0.53072333 -0.30480781 0.61662239
0.54195035 -0.30342722 0.61208129
1.5284512 -0.31366172 0.61661619
1.5469387 -0.31215909 0.60682201
0.52777255 -0.28591323 0.61408758
0.54181015 -0.28706071 0.61059844
0.52924037 0.19298302 0.62893486
0.54540741 0.19114298 0.62167561
1.5341299 0.1784194 0.6249302
1.5538322 0.17913452 0.62309539
0.53354073 0.20549233 0.62164474
0.52387869 -0.30304366 0.67333412
0.58665705 -0.29885742 0.66346717
0.61332977 -0.3021768 0.67391741
0.67145121 -0.30143559 0.6733638
0.71627057 -0.30482638 0.67024457
0.75935125 -0.30574596 0.67894584
0.80930078 -0.30156541 0.67253625
0.86576259 -0.30624175 0.67540133
0.89999056 -0.30499038 0.67413533
0.96806467 -0.30424652 0.66766673
1.0033578 -0.3070274 0.67195457
1.0591656 -0.30079651 0.68179095
1.1171315 -0.30851454 0.66856927
1.1519811 -0.30301145 0.67866969
1.2218064 -0.30635461 0.67467535
1.2602941 -0.30713227 0.67760885
1.3156271 -0.30319792 0.66829711
1.356141 -0.31038675 0.67478269
1.4141878 -0.30274752 0.67619324
1.4608507 -0.30680138 0.6743139
1.5215617 -0.3083486 0.67681026
1.5435699 -0.31212094 0.67503124
0.52673066 -0.28325418 0.6669535
0.55562425 -0.27659526 0.67808765
0.61339808 -0.28249595 0.67710876
0.67159939 -0.2792818 0.67870796
0.71626258 -0.27694431 0.68153894
0.76658523 -0.28452244 0.67891598
0.81203628 -0.29078656 0.67652446
0.86917853 -0.27704224 0.68315136
0.91902375 -0.2869924 0.68368495
0.96600986 -0.2843428 0.67344677
1.0161892 -0.28075409 0.6806252
1.0677801 -0.2775743 0.68009514
1.1155788 -0.28696898 0.67717135
1.1687679 -0.27401885 0.68150467
1.2142047 -0.27597189 0.68325621
1.2680998 -0.28344873 0.67350769
1.3151108 -0.27354819 0.67945987
1.3634144 -0.2805683 0.68019748
1.4131008 -0.26669365 0.68410945
1.4614637 -0.277551 0.68648934
1.5166816 -0.26587954 0.67837405
1.5452259 -0.26360536 0.67858124
0.52688622 -0.2192584 0.67622042
0.54457939 -0.22313024 0.67145163
0.62441063 -0.22943136 0.68712825
0.66551745 -0.2239299 0.68706059
0.70729947 -0.2401226 0.68662441
0.75926661 -0.22058429 0.68675107
0.81922364 -0.22754675 0.68639964
0.8661927 -0.23445624 0.68609977
0.92254925 -0.22560014 0.68602926
0.96266901 -0.22703217 0.68584853
1.0063926 -0.22896141 0.68564528
1.0819083 -0.23199508 0.68529946
1.099908 -0.20719036 0.68564761
1.1591369 -0.20285453 0.68548954
1.2133112 -0.22214538 0.68495268
1.2745949 -0.22982283 0.68458402
1.3335575 -0.20693344 0.68474001
1.3698492 -0.21837065 0.68623996
1.4096079 -0.20831777 0.68854737
1.4633896 -0.21269801 0.68610156
1.5175605 -0.21750763 0.68373293
1.5459104 -0.22417444 0.67364174
0.52668691 -0.17933299 0.67776233
0.55670357 -0.1732837 0.6810419
0.6117202 -0.17130837 0.68815809
0.67873597 -0.16944422 0.68792808
0.72439098 -0.16684908 0.68779361
0.77437449 -0.1805733 0.68736708
0.7988981 -0.16186212 0.68758702
0.86541402 -0.17454408 0.68711352
0.90713871 -0.1829038 0.6868096
0.97382748 -0.16892795 0.6867851
1.0191181 -0.1734481 0.68653202
1.0500151 -0.17689826 0.68635321
1.1144685 -0.16776267 0.68625575
1.1652175 -0.17345317 0.68596178
1.2126509 -0.17169234 0.68580633
1.2743545 -0.17327666 0.68630314
1.3178649 -0.16724335 0.69023335
1.3584722 -0.15999399 0.68715429
1.4108011 -0.16941719 0.68874031
1.4619241 -0.1646098 0.68839252
1.5160682 -0.16882224 0.67935401
1.5452689 -0.16178899 0.67873442
0.52911317 -0.12500225 0.67750663
0.56436229 -0.1191373 0.68356365
0.59794128 -0.1220863 0.68904221
0.65624118 -0.12811875 0.68871289
0.70325816 -0.11457176 0.68875796
0.76597106 -0.12086159 0.688407
0.81454265 -0.12694359 0.68811488
0.85602975 -0.12338208 0.68801302
0.96757042 -0.12732986 0.68751115
1.0212516 -0.12468911 0.6873461
1.0578609 -0.12673834 0.68716866
1.1202558 -0.11534218 0.6871174
1.1536452 -0.12298916 0.68685812
1.2129983 -0.11192273 0.68681306
1.2645321 -0.11765991 0.68857902
1.3182544 -0.12263374 0.68992603
1.3598106 -0.1161501 0.68987304
1.4179446 -0.10747058 0.68723488
1.4564651 -0.11884145 0.68727499
1.5163361 -0.11579582 0.67705464
1.5479572 -0.1095264 0.67286187
0.52980614 -0.081740633 0.68281889
0.55852091 -0.074156106 0.68384373
0.61377716 -0.069537632 0.68986684
0.6617496 -0.070698723 0.68965995
0.71789122 -0.075814843 0.68935448
0.76653552 -0.076210573 0.68915802
0.81588268 -0.080618784 0.68889105
0.86056316 -0.07822445 0.68875706
0.91573799 -0.070236936 0.68867642
0.9700141 -0.074943028 0.68838519
1.0075266 -0.070420094 0.68831509
1.0623024 -0.077109732 0.68798846
1.1145755 -0.066964 0.68795562
1.1695168 -0.058471285 0.69083267
1.2144797 -0.068060115 0.69116789
1.2640611 -0.074511312 0.69091386
1.3111408 -0.072839946 0.69003761
1.3620059 -0.070974931 0.6906746
1.4121183 -0.066773944 0.68954927
1.4615439 -0.060690403 0.68957353
1.5165588 -0.068959631 0.68304592
1.5472395 -0.061175421 0.66639423
0.53245795 -0.042780079 0.67602044
0.55521584 -0.019232158 0.68492293
0.61212337 -0.026053432 0.69060665
0.6577394 -0.013281601 0.69064409
0.70610344 -0.017429629 0.69038534
0.75989056 -0.021155085 0.69011265
0.81312084 -0.032525353 0.68971306
0.86458218 -0.022642819 0.68967897
0.93293619 -0.01802633 0.6894899
0.95822966 -0.020405609 0.68935108
1.0209746 -0.02469272 0.68903393
1.0690818 -0.014503261 0.6907379
1.111378 -0.015709242 0.69341886
1.1595652 -0.01622132 0.69230491
1.2015804 -0.030946475 0.69117188
1.2630775 -0.021699911 0.69157916
1.3214333 -0.015431987 0.69145703
1.3636647 -0.020513279 0.69169807
1.4141591 -0.022830905 0.69003236
1.4694905 -0.023551159 0.69047767
1.5121499 -0.025282547 0.68507332
1.5484356 -0.016119486 0.67309749
0.52827656 0.013677314 0.68173403
0.55538535 0.031706546 0.6830337
0.61236858 0.025566161 0.69147646
0.67109299 0.018957898 0.69113576
0.70672834 0.027827494 0.69114631
0.77460933 0.026767224 0.69086349
0.8119477 0.023911539 0.69066954
0.86315084 0.019236555 0.69039094
0.92044413 0.025285399 0.69026923
0.96650076 0.034100413 0.69138485
1.0200847 0.030554777 0.69193476
1.0619534 0.030259844 0.69209397
1.1142715 0.028712276 0.69369823
1.1673009 0.034346089 0.69289833
1.2160045 0.024386449 0.69280487
1.2653594 0.033840723 0.69299859
1.3088914 0.02812486 0.69281399
1.3704141 0.030997487 0.69090259
1.4101613 0.039815985 0.69227201
1.4585781 0.03068142 0.69090587
1.5148993 0.025638295 0.68901122
1.5473554 0.031915322 0.6794582
0.53008831 0.078023009 0.67236388
0.55106425 0.077721752 0.68918365
0.60671663 0.080631845 0.69242734
0.65049541 0.072013021 0.69211107
0.7158469 0.084962353 0.69207442
0.7699151 0.08554671 0.69187331
0.81329978 0.083144769 0.69166344
0.86682594 0.079083055 0.69138598
0.92337108 0.081249766 0.69464153
0.95596278 0.084001563 0.69456071
1.0105548 0.070607536 0.69488615
1.0601645 0.075525828 0.69272119
1.1229995 0.08477255 0.69418645
1.1533145 0.079417147 0.69527674
1.2167556 0.080193453 0.69347864
1.2693179 0.08157941 0.69260895
1.3083824 0.078037068 0.69308472
1.3709154 0.079743207 0.69218141
1.4194307 0.087863617 0.69187886
1.4609016 0.077202991 0.6927399
1.5110781 0.076257095 0.68407917
1.5479764 0.087617695 0.67991108
0.53251314 0.13521165 0.67504078
0.55648041 0.12110847 0.68546903
0.61332643 0.12571344 0.69316202
0.65784109 0.12975647 0.69305646
0.71344447 0.12804106 0.69281048
0.769678 0.11909708 0.69244015
0.81149423 0.12762186 0.69242066
0.86295295 0.13732523 0.69375938
0.9133327 0.12369902 0.69519454
0.95443296 0.12159596 0.69588894
1.0151987 0.12695682 0.69467187
1.0567507 0.1235286 0.69532549
1.1211525 0.12807363 0.69465935
1.1590452 0.13418947 0.69314057
1.2145374 0.13082296 0.69296539
1.2648706 0.13291532 0.69379807
1.3129698 0.12247137 0.69324303
1.3568416 0.1208508 0.69455582
1.4135067 0.12524946 0.69484657
1.4610575 0.13223842 0.69313842
1.5179828 0.13229652 0.68928301
1.5460483 0.12977546 0.67944431
0.52960181 0.17263113 0.68714851
0.55533922 0.18059795 0.68710232
0.61243153 0.18144819 0.68183911
0.66160476 0.17931722 0.68662059
0.70925343 0.18306154 0.68523031
0.76178813 0.17934981 0.68697315
0.80696356 0.18165237 0.68622124
0.85578716 0.1800198 0.68839175
0.91447687 0.18052503 0.68993002
0.96443963 0.1743239 0.69196826
1.0140417 0.1797207 0.68307483
1.0604031 0.17393667 0.68733841
1.1100619 0.17589357 0.68676645
1.1542195 0.17337492 0.68620521
1.2111619 0.17590088 0.68839657
1.258147 0.17213006 0.69051546
1.3043299 0.17792776 0.68662828
1.3591582 0.17563733 0.68432677
1.4158766 0.17363533 0.68464381
1.4632105 0.17253022 0.6858868
1.52008 0.17166054 0.67971259
1.5481296 0.17506573 0.67573261
0.5296067 0.20214666 0.67707324
0.55935359 0.20309468 0.67409557
0.59204578 0.20145975 0.6762563
0.52308857 -0.30751306 0.70409137
0.54192483 -0.30406678 0.70848793
1.2222781 -0.29967991 0.69048929
1.2687025 -0.29712817 0.69035107
1.3146983 -0.29924747 0.69013578
1.360026 -0.29900348 0.68996304
1.4400777 -0.29769045 0.68967271
1.4679842 -0.30309787 0.68947256
1.5304302 -0.31278205 0.72315025
1.5466825 -0.31707957 0.72451895
0.5242641 -0.29195631 0.70332873
0.55828965 -0.27747512 0.69742215
0.61680925 -0.27526712 0.69326413
0.66721487 -0.27295122 0.69310647
0.71272993 -0.27557284 0.69250107
0.75835061 -0.27027526 0.69279593
0.8126142 -0.27051905 0.69257998
0.86076272 -0.26902151 0.69241732
0.91652834 -0.26839048 0.69183081
0.96975338 -0.27783129 0.69184333
1.0240619 -0.27899384 0.69161183
1.0585985 -0.27637866 0.69152111
1.1118208 -0.28132722 0.69122988
1.1630511 -0.27136487 0.69119805
1.2141081 -0.27456048 0.69094485
1.2685355 -0.26149443 0.69095284
1.3203073 -0.26381165 0.69071162
1.3557101 -0.27074811 0.69045645
1.413208 -0.28618819 0.68997157
0.56727719 -0.22194612 0.69435686
0.6168201 -0.21813937 0.69422776
0.66396534 -0.21684268 0.69406557
0.71576166 -0.22434819 0.69373679
0.76781189 -0.21489105 0.69369316
0.82081962 -0.21739241 0.69344407
0.86718011 -0.22723646 0.69309711
0.91837656 -0.22590858 0.69291967
0.97038496 -0.21362999 0.69292384
1.0232412 -0.21383047 0.69271415
1.0606186 -0.22825176 0.692325
1.1138878 -0.22260302 0.6922124
1.1539391 -0.21312413 0.69221598
1.2239602 -0.22945967 0.69166708
1.270443 -0.21874037 0.6916666
1.307153 -0.21826054 0.69153124
1.3500049 -0.23978221 0.69100112
0.56066549 -0.17499261 0.69517457
0.61614716 -0.17977341 0.69487745
0.65138495 -0.17427041 0.69483274
0.72357082 -0.17622373 0.69451809
0.76537013 -0.18075636 0.6942786
0.80923569 -0.18143785 0.69409567
0.86293077 -0.16697311 0.69413018
0.91644359 -0.17284396 0.69382238
0.96812403 -0.17512612 0.69358212
1.0191561 -0.16812235 0.69350106
1.0644394 -0.16425696 0.69338953
1.1079077 -0.16995244 0.69312382
1.1666852 -0.17562103 0.69279879
1.2001852 -0.172315 0.69272381
1.2557108 -0.16000357 0.69271475
1.3032724 -0.18886015 0.69204235
0.56757224 -0.1230662 0.69574869
0.61530852 -0.125797 0.69579113
0.66565931 -0.11231405 0.69582206
0.71475315 -0.12295984 0.69545096
0.76719987 -0.12530284 0.6952067
0.83146656 -0.12554871 0.69495177
0.86422706 -0.12281538 0.69486988
0.90680158 -0.12676263 0.69463724
0.96899366 -0.11704159 0.6945585
1.0118327 -0.12302777 0.69429016
1.0641156 -0.11450239 0.69423008
1.1042501 -0.1205593 0.69397116
1.1647806 -0.12056054 0.693735
1.2145461 -0.13548015 0.69328916
0.58715081 -0.074151263 0.69677228
0.61000371 -0.080554932 0.69657499
0.65690124 -0.075839713 0.69647151
0.72681665 -0.08998242 0.69596016
0.75463843 -0.078424722 0.69604653
0.81706679 -0.069951087 0.69594568
0.8682785 -0.077031679 0.69562644
0.93091631 -0.071143001 0.69548124
0.95727372 -0.075662136 0.69530225
1.0103405 -0.07957571 0.69502902
1.0701576 -0.069477022 0.6949659
1.1019222 -0.063912585 0.6949358
1.1461024 -0.086357467 0.69438481
0.57267892 -0.024302276 0.69766963
0.60754561 -0.033784445 0.69737351
0.6675092 -0.035981633 0.69710243
0.71813571 -0.029955776 0.69700652
0.7673912 -0.021689285 0.69695365
0.8256197 -0.0054958053 0.69699955
0.85899317 -0.031594075 0.69642907
0.91004205 -0.026917379 0.69630867
0.961712 -0.015007094 0.69630808
1.0224043 -0.01600197 0.69605428
1.0632093 -0.030102694 0.69565713
0.56174505 0.022673242 0.69832504
0.61214864 0.033538032 0.69849116
0.66513634 0.026519265 0.69816601
0.71077919 0.03972809 0.6982106
0.76508164 0.022802791 0.69771314
0.80199671 0.030348819 0.69769633
0.85873246 0.027462451 0.6974262
0.92545962 0.030179488 0.69721168
0.96362233 0.031038119 0.69707716
1.0018882 0.015274366 0.69666195
0.56470692 0.059081148 0.69902027
0.61230814 0.081507526 0.69929963
0.68560541 0.067984276 0.69878548
0.71265006 0.081696436 0.69891113
0.75839639 0.054034747 0.69826609
0.8141402 0.069711089 0.69831288
0.86334467 0.080206729 0.69829792
0.90407598 0.071945265 0.6979996
0.58206403 0.1102121 0.69990182
0.61957383 0.1248506 0.70000237
0.65690517 0.12099024 0.69979155
0.70376897 0.13042274 0.69976771
0.76757693 0.13273518 0.6995576
0.80674243 0.13498043 0.69944274
0.85341763 0.11019894 0.69884259
0.53006983 0.18909077 0.71474105
0.55883825 0.18213846 0.70901603
0.61771524 0.17860563 0.70091635
0.65903211 0.17554045 0.70070344
0.71629548 0.16177541 0.70024776
0.76524162 0.16884315 0.70017588
0.79107487 0.16736585 0.70005018
1.5344875 0.17516932 0.7213397
1.5494759 0.16834059 0.72745758
0.53416407 0.2036642 0.72981256
0.54603279 0.20341234 0.73212087
0.52368295 -0.30526337 0.75136566
1.5271119 -0.31659204 0.75986576
1.546296 -0.30558029 0.78493845
0.52673531 -0.28831282 0.76634878
0.54157805 -0.29269621 0.75906777
0.5297879 0.19388872 0.75531411
0.54519415 0.18171425 0.75309581
1.5347606 0.17513351 0.78896201
1.5485777 0.17432837 0.7768423
0.54681671 0.20282389 0.7663151
0.5286293 -0.30800185 0.81998998
1.5304393 -0.31720278 0.81639767
1.5463532 -0.32264152 0.80405337
0.53939342 -0.28810558 0.82079571
0.54294193 -0.29669994 0.81931573
0.52998114 0.1863008 0.83352065
0.54682279 0.1841518 0.81717646
1.5350896 0.17264251 0.84012944
1.5462817 0.166126 0.82751089
0.54655969 0.20075919 0.82526392
0.52459717 -0.30831417 0.87032968
0.5401839 -0.31065169 0.87266588
1.5303972 -0.32368726 0.86217004
1.5459681 -0.32060853 0.87060416
0.53122175 -0.28890041 0.87684953
0.54316187 -0.29991168 0.88532335
0.53211451 0.18289122 0.87358737
0.54046404 0.17915954 0.89239275
1.534976 0.16163719 0.89752668
1.5528553 0.16456753 0.86029565
0.53300691 0.20081688 0.8831073
0.54942417 0.20087694 0.87943673
0.53162086 -0.31105745 0.9059751
1.5296699 -0.3225252 0.921188
1.5452338 -0.31527302 0.90705055
0.52163553 -0.30313465 0.93024659
0.54283249 -0.29204202 0.89534628
1.5354142 0.17549811 0.94283897
1.5499346 0.17257847 0.92703456
0.53288484 0.20007604 0.92990977
0.54735172 0.19908366 0.92263645
0.52926219 -0.31203595 0.96674669
0.54241979 -0.31102982 0.96173173
1.5313128 -0.32676825 0.9766081
1.5471989 -0.32228723 0.96436477
0.52540243 -0.29499638 0.95755523
0.54272151 -0.29702839 0.95952553
0.53060961 0.18638211 0.98265368
0.54463267 0.17975581 0.97356969
1.53547 0.16880487 0.98452991
1.5551989 0.16894263 0.98189253
0.53073967 0.19557646 0.97450233
0.54861379 0.19943294 0.96626723
0.52818573 -0.31256557 1.0013784
1.5294124 -0.32145524 1.0101677
1.5446805 -0.31924003 1.0111349
0.52336586 -0.29096401 1.0039278
0.54168022 -0.29169875 1.0322644
0.53072584 0.18145385 1.0312839
0.55233622 0.17975108 1.0272135
1.5355998 0.1647293 1.0327467
1.5498551 0.16610771 1.0299891
0.53093004 0.1972184 1.012789
0.55075717 0.19804128 1.0468272
0.52445006 -0.31335813 1.0550307
1.5337347 -0.31028217 1.0782899
1.5475073 -0.32071012 1.0549003
0.52928698 -0.29479259 1.0574447
0.54388142 -0.30069226 1.0596815
0.54470527 0.18002203 1.0760428
1.5466261 0.16952276 1.0720433
0.53377151 0.19817197 1.0572001
0.54371393 0.19647184 1.0721464
0.52664578 -0.31447932 1.1150063
0.62725711 -0.31077945 1.1197865
0.66606927 -0.31156087 1.1248244
0.70964718 -0.31226104 1.119933
0.80826247 -0.31329626 1.1199917
0.865049 -0.31276035 1.1214718
0.90983236 -0.3150354 1.1185355
0.96633554 -0.31704262 1.130245
1.0160325 -0.31604132 1.1172014
1.0726666 -0.31583887 1.127968
1.1274525 -0.31490973 1.1261388
1.1762278 -0.3173258 1.1206406
1.2078847 -0.31565323 1.1191362
1.2667742 -0.31461287 1.1252345
1.3162105 -0.30929467 1.1325428
1.3704196 -0.31647873 1.1192994
1.4159912 -0.31941566 1.1166602
1.4652767 -0.31524238 1.1230451
1.5259268 -0.32148525 1.116661
1.5462191 -0.32150015 1.1175021
0.52518141 -0.29023883 1.1103278
0.5584178 -0.29506099 1.1244829
0.61405611 -0.29302654 1.1240797
0.64730704 -0.2875132 1.1305572
0.71863544 -0.29171798 1.1249485
0.77179241 -0.2892974 1.1238142
0.81379032 -0.28968355 1.1251595
0.87574053 -0.27926648 1.1323831
0.91712821 -0.29296762 1.1265742
0.95646131 -0.29729354 1.1266592
1.0153538 -0.28645992 1.1280305
1.0662268 -0.28972533 1.1319437
1.1204171 -0.28652671 1.1309309
1.1612052 -0.28426611 1.128852
1.2125303 -0.29312694 1.1296754
1.2607867 -0.28815362 1.127223
1.3180238 -0.28696015 1.132486
1.358959 -0.28485206 1.1305425
1.4138504 -0.27678519 1.134235
1.4604956 -0.28562006 1.1313331
1.515751 -0.28423402 1.1298988
1.5449164 -0.26739201 1.1238171
0.52620745 -0.22363278 1.1245378
0.54823625 -0.23361921 1.1311618
0.6198566 -0.22726393 1.1346515
0.67148376 -0.23650327 1.1342942
0.70759344 -0.22687824 1.1343156
0.77018869 -0.23041865 1.1340114
0.81351948 -0.24260588 1.133637
0.86141014 -0.2398224 1.1334971
0.91821349 -0.23541062 1.1333497
0.96423781 -0.2358408 1.135456
1.0180069 -0.22616415 1.1368686
1.0624814 -0.23408379 1.1366786
1.1105747 -0.23050517 1.1371332
1.1607863 -0.22941306 1.1347973
1.2127845 -0.23417322 1.1371348
1.266174 -0.22457966 1.1342909
1.3172946 -0.23384446 1.1361965
1.3633102 -0.22164084 1.1347932
1.4170122 -0.22834983 1.1345319
1.4650493 -0.23226193 1.1343954
1.5181228 -0.22923486 1.1298285
1.5448042 -0.22292604 1.1180011
0.52691472 -0.19125758 1.1252115
0.55777562 -0.19004971 1.1317014
0.6284306 -0.1798487 1.1354178
0.65703058 -0.18096659 1.1352874
0.70366454 -0.18256699 1.1350783
0.767851 -0.18794993 1.134737
0.81744075 -0.18759684 1.1345495
0.84601533 -0.18746297 1.1344402
0.92093265 -0.18923709 1.134118
0.95714855 -0.18205744 1.1390116
1.0059425 -0.18774574 1.1386269
1.0537508 -0.17456135 1.1377168
1.1142652 -0.17426588 1.1364824
1.1680347 -0.17959769 1.1358958
1.211766 -0.18076628 1.1361831
1.2589604 -0.18076603 1.1356933
1.3165872 -0.18646805 1.138124
1.3646059 -0.17554007 1.1353692
1.4101638 -0.18184736 1.1367846
1.466248 -0.17450163 1.1355141
1.5221688 -0.17676592 1.1323552
1.5472026 -0.1715758 1.121042
0.53018498 -0.13687056 1.123999
0.55155516 -0.13489811 1.1341665
0.62292433 -0.12854537 1.1363046
0.65879512 -0.14143857 1.1359471
0.71897686 -0.13773908 1.1357746
0.76656771 -0.14030537 1.1355456
0.81303847 -0.12843892 1.1355647
0.86623669 -0.13163371 1.1387428
0.91232431 -0.14184088 1.1377027
0.95830917 -0.13540037 1.1380072
1.0193486 -0.13997371 1.136858
1.0623388 -0.12401003 1.136783
1.1139728 -0.13154626 1.1371703
1.1651425 -0.12950021 1.1379247
1.2104225 -0.12518758 1.1378902
1.2634907 -0.13462302 1.1352308
1.3117878 -0.11757705 1.1369282
1.3645991 -0.1349581 1.1363595
1.4197026 -0.12710318 1.1362767
1.4621547 -0.12467844 1.1362216
1.5158906 -0.13056964 1.1331922
1.5450143 -0.13298041 1.1274205
0.52985787 -0.092656553 1.1217519
0.55395687 -0.08897312 1.1300625
0.61470973 -0.078816891 1.1371756
0.65535378 -0.091436401 1.1368042
0.71174777 -0.087576218 1.1366493
0.76991117 -0.080226474 1.1397213
0.80730343 -0.090656802 1.1403519
0.86466837 -0.078692116 1.1379219
0.91307962 -0.08820989 1.1384324
0.96132934 -0.085311987 1.1385795
1.0182079 -0.082362138 1.1389807
1.0606455 -0.076684035 1.1400573
1.103615 -0.082734257 1.1383764
1.1604989 -0.079274729 1.139624
1.2117116 -0.085187845 1.1388656
1.2653221 -0.084212288 1.1392525
1.3042154 -0.08222501 1.1378666
1.359453 -0.078017846 1.1392857
1.4159006 -0.075988963 1.1375358
1.4648209 -0.076863468 1.1399101
1.5173477 -0.086866826 1.1310532
1.5464138 -0.078919232 1.11903
0.52864039 -0.03641196 1.1292681
0.5533253 -0.027356192 1.1266639
0.61721456 -0.034407966 1.1379148
0.67932105 -0.034304537 1.1393942
0.72308087 -0.033339158 1.1425229
0.75442028 -0.037198771 1.1405075
0.81100404 -0.033240438 1.1408474
0.85511661 -0.026572246 1.143998
0.91140294 -0.033434927 1.1407143
0.95448864 -0.035474438 1.1407084
1.0061257 -0.03812921 1.1403474
1.0682291 -0.033587836 1.1366975
1.114187 -0.038275514 1.1382033
1.1619681 -0.032427371 1.1376985
1.2120757 -0.034535147 1.1393436
1.2636644 -0.0409467 1.1378614
1.3050081 -0.035885543 1.1381539
1.36774 -0.028395046 1.137839
1.4143956 -0.024577405 1.137471
1.4645761 -0.033892598 1.1369095
1.5176022 -0.030505823 1.1319834
1.54583 -0.036176495 1.1220261
0.53215086 0.018614538 1.1289469
0.56650555 0.014682072 1.135242
0.60762036 0.021432776 1.139582
0.659127 0.0090708453 1.1427844
0.70568371 0.0078441743 1.141722
0.75773704 0.018086648 1.1412002
0.81131411 0.022078544 1.1411678
0.86268067 0.019624654 1.1417996
0.91189277 0.0082735084 1.1414979
0.96443224 0.018475752 1.1405787
1.0131787 0.016364845 1.1414593
1.0657175 0.015871387 1.1394694
1.1066071 0.017916162 1.1400144
1.1607697 0.0212704 1.1384524
1.2082807 0.024536401 1.1424989
1.2675084 0.013044301 1.1414691
1.3086376 0.020303532 1.140517
1.3601826 0.014153278 1.1392741
1.410656 0.017898206 1.1386486
1.4674194 0.027529325 1.1399409
1.5202957 0.018015979 1.1347719
1.5509422 0.029255226 1.1225016
0.53176236 0.063841477 1.1322275
0.56052995 0.060095981 1.1389337
0.61396015 0.07122951 1.1434618
0.66595376 0.068626449 1.144466
0.70964253 0.056340516 1.1422119
0.75799835 0.072292775 1.1422923
0.80288148 0.063217238 1.1388371
0.87375271 0.063465282 1.1424958
0.90602934 0.058371313 1.1408542
0.95878005 0.060299121 1.1410458
1.0102513 0.068240151 1.141552
1.0680192 0.071240969 1.1413771
1.1074744 0.064365447 1.1414895
1.1656899 0.072586939 1.1407894
1.2104797 0.069670841 1.1419412
1.2668335 0.070620909 1.1381339
1.3119764 0.069628805 1.1409711
1.3658348 0.062760666 1.1400717
1.4096322 0.062646478 1.1396344
1.4574922 0.06740398 1.1389325
1.5185976 0.067971282 1.1349317
1.5474663 0.063915327 1.1207691
0.53020287 0.097274505 1.1276568
0.55921102 0.11198803 1.1383514
0.60721004 0.11955769 1.1425166
0.66566408 0.10977431 1.1442854
0.70808613 0.11032724 1.1427531
0.75975454 0.11293907 1.1436659
0.82040954 0.11502075 1.1458338
0.87055826 0.1209661 1.1426737
0.91804099 0.12183335 1.1422427
0.96207225 0.11482871 1.1430991
1.0014949 0.12030657 1.1418912
1.0599574 0.11908538 1.1410691
1.1133751 0.11904345 1.1423192
1.155375 0.12113502 1.1425657
1.2120352 0.11158389 1.1418084
1.2639853 0.11300263 1.1394057
1.3096385 0.11632243 1.1421773
1.3668092 0.11951078 1.1428773
1.408549 0.11969431 1.1401775
1.4651746 0.11836475 1.141482
1.5198101 0.12334341 1.1377169
1.5524068 0.12305451 1.1302667
0.53088176 0.16362472 1.1331756
0.55676723 0.16885023 1.1350497
0.60865676 0.16241956 1.1370187
0.66257536 0.1725308 1.137374
0.72082686 0.16699395 1.135018
0.75874448 0.16873223 1.1369766
0.80505371 0.1715886 1.1355665
0.85923433 0.17011727 1.1370685
0.91118908 0.16761072 1.134352
0.95536864 0.16873597 1.1351727
1.0157542 0.16942744 1.1332332
1.0664854 0.1710846 1.1311234
1.1091133 0.16366242 1.138501
1.1531488 0.17249215 1.1276168
1.208565 0.17244074 1.1317722
1.2581892 0.16143189 1.1344736
1.3124547 0.16083351 1.130935
1.3605483 0.16752286 1.1328638
1.4094206 0.16232792 1.1330198
1.4642676 0.16177204 1.1303961
1.5178787 0.16456726 1.1347469
1.5455068 0.16959172 1.1283292
0.53281653 0.19662772 1.1239634
0.55064762 0.19492148 1.1293327
0.61510909 0.19339314 1.1318363
0.66018355 0.19262014 1.1296784
0.75193059 0.19097954 1.1292896
0.52751338 -0.31549948 1.174813
1.5274613 -0.32054844 1.161095
1.5479896 -0.31729373 1.1599768
0.53120756 -0.29563338 1.1632961
0.55058324 -0.28518233 1.142312
0.62098241 -0.28117087 1.1406173
0.64791751 -0.2768659 1.1405849
0.71058536 -0.28171206 1.1398691
0.75784349 -0.27836546 1.1401306
0.80223143 -0.28875399 1.139782
0.86235607 -0.29030514 1.1395211
0.9146229 -0.28684953 1.1393756
0.97082877 -0.27112761 1.1394213
1.0053123 -0.29292509 1.1389191
0.57160223 -0.24790612 1.1413713
0.61886728 -0.22767836 1.1415278
0.66519487 -0.23921901 1.1411524
0.71377742 -0.23643933 1.1410097
0.76953197 -0.22794646 1.1409352
0.82694495 -0.24329135 1.1404524
0.86491835 -0.22042571 1.14069
0.92104566 -0.235883 1.14021
0.95454347 -0.24209976 1.1399746
0.56796575 -0.18360676 1.14247
0.61155307 -0.19447809 1.1421164
0.66828883 -0.18310761 1.1420869
0.71320522 -0.18584354 1.1418653
0.76314998 -0.17094429 1.1419219
0.81584144 -0.17436671 1.1416584
0.85476995 -0.20107999 1.1410558
0.91522932 -0.20678207 1.1407237
0.57133842 -0.14317979 1.1431388
0.61659276 -0.13909149 1.1430311
0.64595544 -0.13674402 1.142956
0.71164179 -0.13197899 1.1427801
0.77099407 -0.12847266 1.1426076
0.7953459 -0.12639336 1.1425477
0.85409904 -0.15715481 1.1417993
0.55592406 -0.087790661 1.1441331
0.61008692 -0.083673008 1.1439912
0.66268289 -0.084820345 1.1437666
0.71711862 -0.085939273 1.1435351
0.75543833 -0.10327088 1.1430933
0.56810653 -0.032555342 1.1450173
0.61250854 -0.03509593 1.1448013
0.65634537 -0.043514077 1.144488
0.56142163 0.0062055867 1.1456972
0.61161089 0.00080273207 1.1454101
0.54842496 0.046096195 1.1464207
0.53127837 0.1803128 1.1675508
0.54820657 0.17687166 1.1642828
1.5475984 0.171664 1.1686311
0.53322804 0.19637381 1.1648315
0.55275357 0.19370937 1.17246
