# .PCD v0.7 - Point Cloud Data file format
VERSION 0.7
FIELDS x y z
SIZE 4 4 4
TYPE F F F
COUNT 1 1 1
WIDTH 204
HEIGHT 1
VIEWPOINT 0 0 0 1 0 0 0
POINTS 204
DATA ascii
1.4488809 -0.32178992 0.148102
1.4736974 -0.32990819 0.12505895
1.5101171 -0.32726091 0.1203829
0.4974075 -0.28801262 0.1276129
0.50998777 -0.28922325 0.12565574
1.466354 -0.26600984 0.13353154
1.5084851 -0.26916203 0.11902566
0.4833729 -0.22184753 0.12464019
0.51109749 -0.22295098 0.12577006
0.52086323 0.19788471 0.12544703
1.4826268 0.1596067 0.13565344
1.5194675 0.16051179 0.11927685
0.59266138 0.22064579 0.14937353
1.4846994 0.22233166 0.13433357
1.5232944 0.22110394 0.12108289
1.4416994 -0.31281915 0.16875684
1.455716 -0.31432483 0.18224563
1.5297505 -0.30794513 0.16335417
1.5715628 -0.3101005 0.16069503
0.48415124 -0.27653742 0.15374754
0.5143699 -0.2830908 0.15589638
0.57248551 -0.26150465 0.18745074
1.4419993 -0.28419462 0.17027962
1.4590188 -0.27560559 0.17624085
1.5228186 -0.27015269 0.17275257
1.5756491 -0.28502721 0.19462083
0.48115638 -0.22606511 0.16624105
0.51967061 -0.22779875 0.16622983
0.57110411 -0.2376142 0.18191709
0.52242857 0.19784045 0.16023454
1.469274 0.1769281 0.17392614
1.5218898 0.15755141 0.16567941
1.5688969 0.17300634 0.18778437
1.6115693 0.17362073 0.1975286
0.54831213 0.20861489 0.17450681
0.57470667 0.211449 0.17793852
0.60649341 0.21410213 0.18722309
1.4671986 0.21048157 0.17004646
1.5354731 0.21219639 0.15900491
1.5540323 0.21022193 0.18252061
0.59561014 0.25059384 0.18775392
0.61042458 0.25130039 0.1907014
1.4337692 -0.30164105 0.24112502
1.4591798 -0.30526075 0.22060747
0.49477556 -0.25292754 0.23340079
0.52574468 -0.2574043 0.23365653
0.57508749 -0.25873739 0.23406191
0.62570894 -0.25982997 0.23447785
0.67596596 -0.26078656 0.23489079
0.72938341 -0.25854269 0.23748887
0.77308947 -0.25799412 0.23927425
0.82343221 -0.26038611 0.23937714
0.8741377 -0.26294366 0.23950328
0.92263657 -0.26445404 0.24006453
0.97199374 -0.26706216 0.24017079
1.025043 -0.26931307 0.24042109
1.076028 -0.27197459 0.24060503
1.1250453 -0.27346691 0.24114603
1.1739882 -0.27499834 0.24161556
1.2243745 -0.27870834 0.24132799
1.277584 -0.28057241 0.24190173
1.3246042 -0.28271401 0.24213478
1.3753161 -0.28454462 0.24244416
1.4293269 -0.28546768 0.24289311
1.460618 -0.2812002 0.23092142
0.47764188 -0.23535705 0.22778426
0.52699018 -0.24297711 0.23798154
0.57415289 -0.2443161 0.24029228
0.62375319 -0.24602717 0.24107012
0.67448169 -0.24794859 0.24185047
0.71407837 -0.2495373 0.24251947
1.4616051 -0.22512098 0.24489197
0.47540781 -0.17390634 0.23321572
1.4614028 -0.19711259 0.24523136
0.47627112 -0.12444413 0.23320651
0.47725761 -0.075089842 0.23319831
0.47844505 -0.034944803 0.23319492
0.47927469 0.029119024 0.23318054
0.47343644 0.080211408 0.23852085
0.47438109 0.12504634 0.23931618
0.4769434 0.16725934 0.23897529
1.4809854 0.18845662 0.21553656
1.5012512 0.1782859 0.21311751
0.54122549 0.21525995 0.23850605
0.57436073 0.21715264 0.23902743
0.62348926 0.21562129 0.2392704
0.67386663 0.21376278 0.23937531
0.71902782 0.21183267 0.24169432
0.75968337 0.20549919 0.24794744
1.4806466 0.20001061 0.20799132
0.73848164 -0.25055081 0.25405934
0.77482033 -0.25192919 0.25484073
0.8257966 -0.25369054 0.25557953
0.87607008 -0.25519156 0.25630793
0.9251011 -0.25679362 0.25657168
0.97355342 -0.25833482 0.25708711
1.0251873 -0.25955153 0.25777754
1.0742666 -0.26095197 0.25820163
1.1229473 -0.26223335 0.25865433
1.1755446 -0.26388744 0.25895303
1.226341 -0.26511618 0.25943044
1.2791063 -0.26580295 0.26038906
1.3262169 -0.26806432 0.26014072
1.371717 -0.2693741 0.26045763
1.4212446 -0.2708196 0.26081237
1.4555383 -0.26528803 0.25782955
0.54733306 -0.24248147 0.25088179
0.5798524 -0.22659224 0.25597051
0.62361246 -0.2265116 0.25650889
0.6739251 -0.22825506 0.25683102
0.72181541 -0.22715692 0.25751713
0.77353919 -0.22502828 0.25831467
0.82568711 -0.22509271 0.25874275
0.87751824 -0.22505006 0.25916824
0.92741328 -0.22493577 0.25957775
0.97281975 -0.22527002 0.25995061
1.0234665 -0.22496411 0.26036626
1.0737196 -0.22499406 0.26077881
1.1217427 -0.2248681 0.26117292
1.1750114 -0.2253768 0.26161042
1.2250443 -0.22458963 0.26202083
1.2798202 -0.22515576 0.26247063
1.3297598 -0.22542316 0.26288071
1.3726387 -0.22457689 0.26323247
1.4185424 -0.22486451 0.26360932
1.4569346 -0.22502138 0.25797331
0.58203393 -0.17535092 0.25672629
0.62316477 -0.17498931 0.2570636
0.67345637 -0.17497289 0.2574766
0.72239047 -0.1749652 0.25787836
0.77345932 -0.17495479 0.25829753
0.82560617 -0.17500453 0.25872564
0.87750006 -0.17499888 0.25915158
0.92715156 -0.17499268 0.25955915
0.97275674 -0.17531064 0.25993362
1.0234637 -0.17482308 0.26034975
1.0730655 -0.1764254 0.26075739
1.1211838 -0.17874537 0.26115319
1.1745071 -0.18198849 0.26159194
1.2243568 -0.18399879 0.26200187
1.278886 -0.18726699 0.26245058
1.3290766 -0.19027519 0.26286355
1.3716538 -0.19167541 0.26321352
1.4170965 -0.19435887 0.26358742
1.4579035 -0.19691402 0.25807306
0.46997479 -0.12390039 0.2735855
0.58339572 -0.12509528 0.25672078
0.62363404 -0.12546192 0.2570512
0.67332172 -0.12489606 0.25745896
0.72225887 -0.1250892 0.25786063
0.77321076 -0.12497136 0.25827903
0.8203308 -0.13209739 0.25866812
0.87618589 -0.14098398 0.25912958
0.92575276 -0.14365168 0.25953731
0.97123814 -0.14605728 0.25991151
1.011752 -0.14803882 0.26024476
0.47203517 -0.075028807 0.27424201
0.58558244 -0.075111665 0.25672245
0.62504584 -0.075026311 0.25704619
0.67317384 -0.074832827 0.25744131
0.72211105 -0.075033583 0.25784305
0.7731747 -0.075079434 0.25826231
0.80710387 -0.075126052 0.25854072
0.47414649 -0.025036549 0.2747021
0.58716673 -0.031400528 0.25672084
0.62525666 -0.029041542 0.25703284
0.67353451 -0.026465803 0.25742829
0.72208732 -0.024987377 0.25782642
0.7730099 -0.025118005 0.25824443
0.80933148 -0.022854647 0.25854185
0.47626388 0.025124785 0.2751621
0.58796084 0.036360256 0.25670508
0.62273175 0.040146694 0.2569893
0.66912782 0.044638898 0.25736868
0.72033477 0.022999195 0.25779617
0.776214 0.0035658618 0.25826129
0.81076819 0.0056042341 0.2585443
0.47719207 0.07628914 0.27266231
0.58873844 0.074968174 0.25669882
0.62461013 0.074975826 0.25699332
0.67282677 0.075019196 0.25738913
0.7214601 0.075552411 0.257788
0.77180761 0.07940165 0.25820008
0.81010389 0.083359517 0.25851321
0.47878212 0.12507942 0.27194965
0.59027588 0.12458136 0.25669509
0.62452167 0.12499277 0.25697592
0.67272508 0.12498014 0.25737178
0.72153908 0.1250688 0.25777248
0.77261847 0.12491634 0.25819185
0.81141007 0.12665032 0.25850964
0.48090291 0.16851653 0.27287158
0.59089673 0.17396991 0.25668386
0.62446576 0.17499752 0.25695911
0.67383152 0.17555566 0.25736406
0.7227298 0.17424135 0.25776601
0.77248913 0.17498076 0.25817418
0.81355077 0.17484765 0.25851133
0.58674544 0.21054327 0.25420693
0.62347651 0.20886154 0.25495368
0.67382008 0.2073957 0.25506961
0.72364646 0.20600869 0.25499061
0.77134794 0.20437363 0.25524014
0.81000805 0.20277213 0.25735611
