# .PCD v0.7 - Point Cloud Data file format
VERSION 0.7
FIELDS x y z
SIZE 4 4 4
TYPE F F F
COUNT 1 1 1
WIDTH 1315
HEIGHT 1
VIEWPOINT 1.99448 -0.255118 0.138346 0.505635 -0.507035 -0.489638 0.497498
POINTS 1315
DATA ascii
1.5636238 -0.33287078 0.080066524
1.5595286 -0.27324349 0.082980119
1.5792426 0.15596266 0.081767067
1.5885271 0.15876333 0.09052629
1.5782894 0.21574751 0.085643612
1.5277576 -0.33382353 0.11577846
1.5626113 -0.33315167 0.10547817
1.5102293 -0.3265278 0.13739552
1.5729361 -0.27656135 0.092655294
1.5385816 -0.26869026 0.11685714
1.5634322 -0.27419427 0.11955263
0.41295612 -0.061834201 0.13731781
0.44392371 -0.045751799 0.13781345
0.40310729 -0.02213588 0.13388433
0.40947139 0.029743083 0.13473226
1.557022 0.15562023 0.12993574
1.5906023 0.15515602 0.1132684
1.5274407 0.21175711 0.15013905
1.5623819 0.21671243 0.12829463
1.6084903 0.19229348 0.15231845
1.5231426 -0.33497092 0.15402395
1.5630275 -0.33424473 0.15703802
1.6316309 -0.33369741 0.1738449
1.6536447 -0.33564487 0.16986704
0.51824033 -0.2972737 0.1825164
1.519632 -0.3047024 0.16698614
1.5575505 -0.30355614 0.16859567
1.6142049 -0.30155459 0.16268541
1.6507337 -0.31241968 0.17372523
0.5237807 -0.2782934 0.17963088
1.5173825 -0.27429202 0.14456062
1.5657941 -0.27487433 0.14632298
1.6038885 -0.27822307 0.17208348
0.40045309 -0.10124931 0.15686478
0.40958738 -0.056888081 0.15180485
0.46658993 -0.04858049 0.17606965
0.40819037 -0.010962087 0.15288083
0.46717966 -0.0304581 0.17298338
0.404984 0.029883757 0.15401284
1.5180875 0.16558504 0.16859776
1.5605786 0.15912722 0.16745637
1.6169864 0.16118768 0.1734914
1.6542056 0.15851685 0.18048079
0.53090084 0.20008244 0.18905589
1.5264301 0.1914445 0.17472731
1.5541917 0.19223858 0.17918736
1.6145988 0.18759853 0.16375504
1.6505867 0.19001754 0.17536478
0.53086019 -0.29364306 0.21232164
0.56763411 -0.29301542 0.2212425
0.62931144 -0.29578882 0.22819339
0.66756487 -0.28981492 0.22044164
0.71913981 -0.29604343 0.22220933
0.7720474 -0.29333863 0.22745267
0.81159031 -0.29019237 0.22233759
0.87613547 -0.29860759 0.22244266
0.91487646 -0.29209176 0.22063561
0.95162523 -0.30042759 0.22307555
1.0147785 -0.30029333 0.22562712
1.0691723 -0.29659802 0.22501385
1.1013542 -0.29877651 0.21867248
1.1754854 -0.30155721 0.22184972
1.2217817 -0.29751334 0.22069661
1.2812037 -0.29969957 0.23020521
1.3108937 -0.2961545 0.2271508
1.3633332 -0.29761013 0.22317137
1.4163202 -0.29572725 0.22098695
1.4712065 -0.29759705 0.2258561
1.5229263 -0.30429506 0.22608887
1.5437176 -0.30468017 0.21122633
0.53142858 -0.27547947 0.22176009
0.55207479 -0.26160631 0.22951239
0.5988692 -0.27657056 0.22092955
0.67093813 -0.27711016 0.22194172
0.70605969 -0.27468914 0.22054742
0.77811086 -0.27485889 0.23489898
0.82551241 -0.27563933 0.23031427
0.86355937 -0.27636194 0.23238502
0.9122833 -0.277778 0.22570412
0.95698929 -0.27796626 0.22729951
1.0246303 -0.28156585 0.21920201
1.0906557 -0.2822971 0.21893483
1.1012276 -0.28052914 0.22459279
1.1587569 -0.28159687 0.22623163
1.2017713 -0.28244945 0.23069419
1.4659092 -0.24053971 0.24082589
1.5173322 -0.25509369 0.2311621
1.5430616 -0.24778527 0.2194476
0.52730072 -0.21086869 0.22933723
0.54337692 -0.23467726 0.23846442
1.3797051 -0.1830726 0.24212517
1.4233174 -0.21544264 0.2414124
1.470536 -0.21975546 0.24115759
1.5154014 -0.20802349 0.23301992
1.5438281 -0.21698275 0.2295692
0.52748334 -0.16286777 0.22965725
0.54506159 -0.13989432 0.23306869
1.3117549 -0.13436118 0.24320671
1.3641278 -0.15757605 0.24261411
1.4222832 -0.1484765 0.24254265
1.4739387 -0.15102535 0.24230038
1.5276392 -0.15523033 0.23487012
1.543962 -0.16112457 0.23208974
0.52632558 -0.11626513 0.23048665
0.54437077 -0.10482357 0.22938636
1.2360859 -0.08387287 0.24434793
1.2690794 -0.098795295 0.24396959
1.3097613 -0.11977343 0.24345976
1.3568562 -0.1206411 0.24326335
1.410434 -0.11352132 0.24317625
1.467167 -0.10814813 0.24304764
1.5168685 -0.10827313 0.23970267
1.5458068 -0.094257966 0.23001535
0.48034632 -0.042423811 0.20165913
0.52162826 -0.049597729 0.23284119
0.54554486 -0.053718507 0.22920552
1.2203979 -0.063108735 0.24475771
1.2731061 -0.052496888 0.24473274
1.3042101 -0.053206451 0.24460071
1.3673586 -0.05878371 0.24426317
1.4052129 -0.055062924 0.24417961
1.4641298 -0.061025973 0.24385192
1.5169168 -0.058499448 0.2395166
0.48755467 -0.029888388 0.20062242
0.52291274 -0.023668693 0.22806214
1.1250792 0.0051080603 0.24627298
1.1759173 -0.015102543 0.24573681
1.2653856 -0.0050809868 0.24555999
1.3161472 -0.0097496286 0.2452855
1.363152 -0.0082736835 0.24512891
1.4132986 -0.017622344 0.24477808
1.463231 -0.0083408523 0.24474145
1.5177866 -0.0016197003 0.23858936
1.5469201 -0.012755347 0.24075796
0.52663207 0.047843691 0.24061458
0.54692507 0.030333519 0.22930466
1.0257887 0.060373116 0.24758574
1.0669743 0.043112554 0.24713644
1.112376 0.044436172 0.24698342
1.1634488 0.031586036 0.24657014
1.217811 0.049281016 0.24665794
1.2700459 0.042352214 0.24633975
1.315685 0.040790848 0.24613729
1.3644128 0.048954003 0.24608651
1.4088484 0.049163185 0.2459185
1.4594702 0.041334204 0.2455914
1.5136504 0.04521383 0.23794359
1.5436003 0.044453699 0.2230406
0.53356874 0.089906126 0.24271354
0.54627585 0.090983532 0.23406342
1.0103049 0.10431954 0.24838461
1.0632577 0.104591 0.24818476
1.1140357 0.098591983 0.24788783
1.1621217 0.096958064 0.24767473
1.2098533 0.10352913 0.24760099
1.2575996 0.10321406 0.24741139
1.3164111 0.091902569 0.24699412
1.3567604 0.091563396 0.24683267
1.4221318 0.099092424 0.24670693
1.4639196 0.092557877 0.2464357
1.5200075 0.099141985 0.24347533
1.5487876 0.080550566 0.23948462
0.53187668 0.14196724 0.23836863
0.55017161 0.14173287 0.24190551
0.9132601 0.1500389 0.24952814
0.96083593 0.14261141 0.24921955
1.0126265 0.1447468 0.24905555
1.0624948 0.1349223 0.2486978
1.1233919 0.1426816 0.24859326
1.1627192 0.14320402 0.24845022
1.2194966 0.14316943 0.24823044
1.2671452 0.13442062 0.2478994
1.3141183 0.13406079 0.24771202
1.3648149 0.13661394 0.24755925
1.4035308 0.15060537 0.24764511
1.4630692 0.14720055 0.24735801
1.5136359 0.15610141 0.23625028
1.547925 0.1508292 0.24030067
0.52993238 0.1973546 0.22822179
0.55704665 0.19672072 0.23306881
0.61522019 0.19359861 0.23470056
0.65967071 0.19455934 0.23511198
0.71340108 0.19669294 0.23911472
0.75999022 0.19006117 0.23761183
0.81192505 0.19338891 0.23244441
0.86224592 0.19421643 0.23829205
0.91441441 0.18370348 0.23999847
0.96103787 0.19178545 0.23970373
1.0131905 0.19148351 0.24669127
1.0656022 0.1883526 0.23944798
1.114314 0.18561947 0.23871605
1.1620554 0.18310897 0.24262108
1.2147679 0.18738514 0.23636246
1.2666043 0.18390058 0.24588156
1.3050944 0.18348339 0.23892297
1.3586527 0.18314886 0.23907317
1.4072229 0.18245575 0.24038254
1.4642763 0.17833057 0.24082892
1.5255574 0.18195178 0.23212659
1.5491602 0.18209033 0.23075441
0.52595794 -0.29721242 0.24472091
0.5584693 -0.2938081 0.24359491
0.66991484 -0.29490307 0.24262421
0.70232129 -0.29348418 0.24397497
0.76173007 -0.29255959 0.24376121
0.8107388 -0.29297921 0.24278317
0.87124217 -0.28811964 0.24350263
0.9656353 -0.29169756 0.24352914
1.0205237 -0.29217386 0.24428092
1.0646513 -0.2941426 0.24433674
1.1020443 -0.29199439 0.24317779
1.1722254 -0.29539391 0.24237189
1.2187124 -0.29385382 0.24309474
1.2708405 -0.28980628 0.24393885
1.3187594 -0.28821835 0.24471815
1.3712454 -0.29511157 0.24217623
1.4147356 -0.29367819 0.24292313
1.4655139 -0.29515192 0.24270847
1.5122954 -0.29804671 0.24472484
1.5452886 -0.30456239 0.26686984
0.53065574 -0.27313384 0.26143134
0.56127787 -0.26587138 0.24728464
0.61408889 -0.2576108 0.24691503
0.66270256 -0.26586518 0.24696185
0.71285176 -0.27348143 0.24535476
0.76564634 -0.26887086 0.24471876
0.80757511 -0.26441008 0.24456002
0.86026132 -0.26070815 0.24587303
0.91316903 -0.26569903 0.24528821
0.96888244 -0.27152696 0.24392985
1.0223359 -0.26492676 0.24251354
1.0637426 -0.25566977 0.24520753
1.1232483 -0.25725219 0.24461932
1.170872 -0.26336285 0.24479136
1.2210749 -0.26228514 0.24355511
1.2684046 -0.26160902 0.24467364
1.302042 -0.25698948 0.24368337
1.3598858 -0.25196412 0.24354467
1.4093469 -0.25329041 0.24541609
1.4651285 -0.25698677 0.24513856
1.5175036 -0.26157105 0.24384531
1.5425473 -0.25225189 0.24142499
0.53219044 -0.21257888 0.26945007
0.56318521 -0.20861149 0.24914724
0.61492884 -0.20433171 0.24901943
0.66453707 -0.21349099 0.247814
0.71874309 -0.21169019 0.24832293
0.76299322 -0.21625297 0.24640469
0.81544542 -0.21146393 0.24841207
0.86100674 -0.2180796 0.24697837
0.90337753 -0.21100494 0.24693382
0.9707346 -0.20169577 0.24614242
1.0190296 -0.2029044 0.24662361
1.0694972 -0.21033718 0.24592161
1.112168 -0.21258162 0.24462719
1.1686741 -0.21397042 0.24585991
1.2176172 -0.20885889 0.24644482
1.2611665 -0.20589338 0.24470052
1.3137211 -0.20985173 0.24307609
1.3701251 -0.20700164 0.24569078
1.4196333 -0.21184695 0.24664664
1.4718144 -0.20326762 0.24830936
1.5120034 -0.21693645 0.24627079
0.53139877 -0.15625371 0.25769338
0.55973089 -0.15822202 0.24856956
0.61311579 -0.17071456 0.24911411
0.66751003 -0.1597798 0.25108719
0.71373093 -0.16592179 0.24793275
0.76443803 -0.16401869 0.24732232
0.81441653 -0.17097414 0.24844189
0.86649907 -0.16718806 0.24895968
0.90757573 -0.16664806 0.24922714
0.96180308 -0.1589983 0.24852102
1.0140607 -0.16711797 0.2479326
1.063871 -0.158967 0.24642514
1.1135483 -0.16134675 0.24664502
1.1622176 -0.15643719 0.24616446
1.2175225 -0.16673712 0.24695705
1.2653288 -0.15300888 0.2459387
1.3215779 -0.15619901 0.24796107
1.3616234 -0.16268277 0.24769747
1.3947971 -0.1368638 0.24972346
1.4776806 -0.16384728 0.24894971
1.5162283 -0.162137 0.24754989
0.53257763 -0.10573549 0.26447824
0.56648374 -0.1168467 0.25063425
0.61606848 -0.12165419 0.24782574
0.66940856 -0.11401676 0.25118804
0.71517146 -0.11547042 0.25020519
0.76090598 -0.11352794 0.24912323
0.82542789 -0.11937699 0.24877578
0.86284471 -0.10352058 0.24791524
0.91760266 -0.10872832 0.24920602
0.95991433 -0.10976004 0.24841835
1.0162817 -0.099446729 0.24810964
1.0720509 -0.11577927 0.24719632
1.1172229 -0.10736132 0.24613161
1.1622496 -0.10438506 0.24841563
1.2265013 -0.10536226 0.24746326
1.2538404 -0.11040448 0.25008723
1.309582 -0.1016174 0.25064525
1.3561447 -0.1125074 0.25028232
1.4148592 -0.11258379 0.25005436
1.4756014 -0.1006877 0.25001997
1.4981749 -0.10760029 0.24981658
0.53260458 -0.06416896 0.26614746
0.56484485 -0.062571436 0.25109214
0.61610019 -0.064289391 0.25077489
0.66289043 -0.064819105 0.25005621
0.71482217 -0.066876665 0.24977297
0.76395786 -0.064951286 0.2504198
0.82007873 -0.061553184 0.25105882
0.86111474 -0.054748684 0.24857838
0.9209516 -0.066968605 0.25100827
0.95189035 -0.056311652 0.25020814
1.016147 -0.058362756 0.2490657
1.0695225 -0.059299722 0.24712408
1.1196434 -0.052204542 0.24956353
1.1680969 -0.059132613 0.24752808
1.2112858 -0.062073186 0.2504389
1.2591255 -0.036977872 0.25192714
1.3235142 -0.050326735 0.25145406
1.3509148 -0.064194113 0.25111505
1.4157811 -0.059057057 0.25095105
1.4558359 -0.069677711 0.2506178
1.4997574 -0.048311763 0.25080761
0.53472078 -0.021257658 0.27189133
0.55906534 -0.0065804832 0.2529828
0.61891687 -0.015196458 0.25063711
0.66204095 -0.0073653981 0.25129032
0.71165776 -0.0097906832 0.25082868
0.76473927 -0.0096434765 0.25108489
0.81029761 -0.013172695 0.25148025
0.86416757 -0.013626816 0.24971682
0.91750228 -0.022210272 0.24833465
0.96033812 -0.0034131203 0.24934539
1.015093 -0.010184767 0.25056797
1.0659134 -0.012555398 0.2482681
1.113353 -0.01557067 0.25147396
1.1618346 -0.010650607 0.25274542
1.2220354 0.00048682094 0.25270039
1.2642497 -0.013407791 0.25230375
1.3193742 -0.013723575 0.25208563
1.365195 -0.014609223 0.25189388
1.4134538 -0.0065395273 0.2518433
1.4514161 -0.0080565512 0.25167125
1.5096112 -0.0034780577 0.251313
0.5338949 0.043408379 0.26622882
0.56203628 0.032672353 0.25192359
0.6155268 0.037170582 0.25195432
0.65886188 0.0357075 0.252027
0.71144783 0.030677248 0.25075665
0.76464963 0.037072681 0.25311577
0.81403124 0.040383827 0.25056854
0.8530786 0.034020014 0.25239545
0.91283917 0.047464468 0.25193229
0.96363914 0.0407518 0.25265515
1.0096587 0.042731874 0.25136432
1.0607885 0.04264006 0.25317183
1.1029388 0.040583171 0.25383452
1.166912 0.044315167 0.25365031
1.2131381 0.038812265 0.25337926
1.2613978 0.034969985 0.25312841
1.3116018 0.034229055 0.25292215
1.3623327 0.032774903 0.25270185
1.41028 0.046506304 0.25274768
1.4695761 0.039669771 0.25240386
1.5070397 0.045303661 0.25204778
0.53346157 0.084343322 0.25713786
0.55636585 0.084147111 0.25567383
0.62457359 0.093336955 0.25312862
0.66753006 0.086947329 0.25285527
0.70794976 0.088536397 0.25272599
0.76742673 0.084932506 0.25128925
0.81119478 0.092307523 0.25200868
0.87266207 0.093149379 0.25178561
0.91205144 0.08747609 0.24995475
0.96555078 0.082218528 0.2512432
1.0155345 0.090619072 0.25501341
1.0613887 0.079762653 0.25465378
1.1197577 0.093018614 0.25465143
1.1584463 0.088715531 0.25442976
1.2143344 0.093241014 0.25429007
1.2625964 0.079563119 0.25387374
1.3607408 0.094550893 0.25374693
1.4015614 0.10760321 0.25380892
1.460031 0.08890073 0.25326863
1.5208535 0.097478777 0.25317812
0.53520334 0.14438246 0.27522504
0.55943227 0.13542825 0.2555114
0.60415614 0.1347664 0.25390419
0.65797627 0.13923976 0.25338948
0.71491098 0.14371179 0.25264433
0.75885415 0.140807 0.25291726
0.80981719 0.14117341 0.2526111
0.85931385 0.14327265 0.25191575
0.91801643 0.1352101 0.25527984
0.97600722 0.15085226 0.256179
1.0153352 0.14285377 0.25589269
1.0662977 0.13959888 0.25564119
1.1271145 0.1488204 0.25556159
1.1630074 0.14623339 0.25537947
1.2064826 0.14469284 0.25518575
1.257331 0.14392029 0.25497648
1.310822 0.14876911 0.25485152
1.3583649 0.13879496 0.25450024
1.4053365 0.15036707 0.25451356
1.4632798 0.13424295 0.25401866
1.5108414 0.14077672 0.25393215
0.5326947 0.18889122 0.26886243
0.5534066 0.18573935 0.26221123
0.60523689 0.18811429 0.2553432
0.66928911 0.18189028 0.25324824
0.71188331 0.18982635 0.25349921
0.75648057 0.18324925 0.25502855
0.81343091 0.18131566 0.25342149
0.86008179 0.19076622 0.2528207
0.91550791 0.18482524 0.25409016
0.97050619 0.18731625 0.2511895
1.0109262 0.18203415 0.2555933
1.0640711 0.1865759 0.25643986
1.1078838 0.18104911 0.25604969
1.1646609 0.17225194 0.25581068
1.1999038 0.17305109 0.25568807
1.2627287 0.17627506 0.25549978
1.3078218 0.17982198 0.25538537
1.4160403 0.16999891 0.25480244
1.4688091 0.17294952 0.25464833
1.5255485 0.17542835 0.272764
1.5504837 0.17819445 0.27954906
0.53180683 0.21127893 0.28299251
0.52585626 -0.29955202 0.30218825
1.5283202 -0.30919293 0.3201592
1.5454125 -0.30933723 0.31734997
0.52717149 -0.27407867 0.31452715
0.54080355 -0.28275377 0.33718544
0.5322839 -0.20951352 0.31846413
0.53266501 -0.16561507 0.31669277
0.53327239 -0.11248314 0.31458119
0.53390169 -0.053888589 0.32377478
0.53547966 -0.0094954465 0.31728438
0.53627825 0.036721934 0.32406235
0.53832471 0.059914157 0.31368914
0.53532135 0.089851692 0.3328799
0.53889585 0.09046419 0.3186242
0.53603792 0.13283944 0.31903166
0.53976262 0.13882299 0.31757101
0.53472114 0.18341862 0.31954929
0.54300785 0.18603082 0.33389771
1.5326209 0.17985627 0.33038247
1.5518917 0.18277875 0.33292696
0.53479886 -0.30231118 0.38611865
0.5407182 -0.29372844 0.36416471
1.5306834 -0.3081874 0.35983139
1.545552 -0.31234547 0.36382321
0.53011131 -0.26071841 0.36240253
0.54085672 -0.28620714 0.36492303
0.53195333 -0.21212214 0.36191571
0.53174806 -0.16506837 0.36001018
0.53251874 -0.11444324 0.36966351
0.53412151 -0.06527023 0.36778939
0.53580451 -0.016182885 0.3722266
0.5367161 0.023075631 0.37671822
0.53834522 0.042192385 0.3952705
0.53537893 0.084016055 0.37201238
0.5389607 0.082512468 0.36865196
0.53634763 0.13443547 0.38653508
0.54005384 0.14119327 0.37730035
0.53477144 0.18089013 0.3757444
0.5436219 0.18692572 0.36775425
1.5331089 0.19061655 0.40102655
1.5496465 0.18431936 0.39041206
0.53608179 0.20958653 0.37942576
0.54008937 0.20920242 0.39803392
0.53377688 -0.30265421 0.40770361
0.54079354 -0.2994101 0.40685305
1.5304339 -0.31269655 0.41399843
1.5433527 -0.30636752 0.41859123
0.52997398 -0.26641738 0.41075167
0.54097426 -0.28886604 0.40464625
0.53225493 -0.22031073 0.41623324
0.53342569 -0.16758634 0.41128829
0.53431654 -0.11882237 0.41429722
0.53435004 -0.069973618 0.41816524
0.53518546 -0.018791385 0.42225367
0.53502822 0.027329609 0.42424613
0.53874099 0.053984914 0.43931156
0.53569138 0.089317173 0.42411646
0.53919744 0.082643315 0.4249602
0.53653312 0.13486706 0.4292053
0.53994584 0.12678199 0.41370809
0.53363872 0.18068027 0.43324035
0.54517806 0.1871873 0.42157587
1.5353751 0.17822109 0.41764501
1.5484531 0.18512724 0.43035424
0.5422889 0.20882596 0.41813642
0.52754283 -0.30100551 0.45679566
0.5411762 -0.29653275 0.48637176
1.5249543 -0.3071695 0.463866
1.5436937 -0.30923563 0.45969638
0.52850747 -0.27330577 0.46436334
0.54120338 -0.28794184 0.4556815
0.53312218 -0.21409166 0.46715662
0.53354573 -0.16799103 0.46259433
0.53260303 -0.12290968 0.4554725
0.53558969 -0.067638963 0.46962839
0.53682506 -0.009582242 0.47166729
0.5353359 0.024999022 0.47198468
0.53843355 0.029666979 0.47068882
0.53556871 0.072575897 0.46707368
0.53963864 0.097829252 0.46526143
0.53668153 0.13646433 0.45798329
0.54030967 0.13352241 0.47196576
0.52829957 0.19445771 0.47116846
0.54237044 0.18641575 0.47211111
1.5510727 0.17714065 0.47362864
0.52848196 0.2072327 0.45971823
0.54491162 0.2079356 0.46846622
0.52888691 -0.30419534 0.51690799
0.54121566 -0.30019698 0.51170355
1.5302582 -0.30085999 0.51800573
1.5445956 -0.30606556 0.52098507
0.52973437 -0.26689377 0.5011664
0.54144335 -0.28822806 0.51458585
0.53222442 -0.22147611 0.50769985
0.53305972 -0.1559554 0.50513673
0.53336668 -0.12647389 0.5093146
0.53398991 -0.073460534 0.50216275
0.53575182 -0.014109463 0.51314127
0.53489077 0.024574624 0.51188415
0.53851128 0.026539765 0.50281632
0.53622019 0.070227228 0.51350957
0.53940725 0.073014215 0.51705378
0.53674173 0.12553857 0.51968509
0.53986371 0.14113101 0.50593042
0.53106272 0.19286372 0.51719773
0.54351962 0.18136516 0.51765078
1.5334663 0.17893319 0.53740042
1.5462908 0.18156424 0.51462698
0.53130996 0.2075513 0.50609791
0.54008222 0.20687847 0.53679705
0.52663124 -0.30264688 0.56722075
0.54145515 -0.29625118 0.55212426
1.529897 -0.31205437 0.5686602
1.5449076 -0.31140193 0.56073242
0.52617574 -0.28407916 0.56161833
0.54164994 -0.28395697 0.57614148
0.52861047 0.1902817 0.56390727
0.55043173 0.19635972 0.57682455
1.5336238 0.1792786 0.57373095
1.5495681 0.18263982 0.58017838
0.53578365 0.20650956 0.56346661
0.53035009 -0.30471823 0.61662626
0.54157734 -0.30333933 0.61208558
1.5280783 -0.31370217 0.61666083
1.5465665 -0.31220248 0.60686731
0.52740169 -0.28582337 0.61409044
0.54143929 -0.28697288 0.6106019
0.52893138 0.19307329 0.62891388
0.54509854 0.19123077 0.62165529
1.5338211 0.17837848 0.62495071
1.5535234 0.17909093 0.62311667
0.53323364 0.20558164 0.62162334
0.52350318 -0.30295038 0.67333764
0.58628237 -0.29877278 0.66347295
0.61295462 -0.30209512 0.67392451
0.6710763 -0.30136147 0.67337322
0.71589541 -0.30475828 0.67025596
0.75897586 -0.30568311 0.67895895
0.80892599 -0.30150935 0.67255121
0.86538696 -0.30619287 0.67541885
0.89961541 -0.30494606 0.67415416
0.96768999 -0.30421138 0.66768825
1.0029826 -0.30699661 0.6719777
1.0587912 -0.30077258 0.68181598
1.1167563 -0.30849874 0.66859704
1.1516064 -0.30299973 0.67869854
1.2214317 -0.30635226 0.67470729
1.2599192 -0.30713475 0.67764235
1.3152531 -0.30320814 0.66833264
1.3557658 -0.31040186 0.6748203
1.4138138 -0.30277011 0.67623287
1.4604765 -0.30683017 0.67435551
1.5211871 -0.30838522 0.67685443
1.5431949 -0.31216049 0.67507654
0.52635813 -0.28316158 0.66695613
0.55525219 -0.27650589 0.67809117
0.61302531 -0.28241414 0.67711484
0.6712271 -0.2792075 0.67871624
0.71589053 -0.27687567 0.68154889
0.76621246 -0.28446048 0.67892832
0.81166267 -0.29073063 0.676539
0.86880684 -0.27699348 0.68316752
0.91865051 -0.28695008 0.68370354
0.9656378 -0.28430709 0.67346722
1.0158173 -0.28072456 0.68064749
1.0674087 -0.27755159 0.6801194
1.1152064 -0.28695258 0.67719799
1.1683972 -0.2740092 0.68153292
1.2138333 -0.27596807 0.68328631
1.2677282 -0.28345242 0.67354035
1.3147403 -0.27355775 0.67949396
1.363043 -0.2805841 0.68023384
1.4127313 -0.26671574 0.68414712
1.4610926 -0.27757925 0.68652958
1.5163125 -0.26591539 0.67841589
1.5448571 -0.26364493 0.67862415
0.52652156 -0.21916538 0.67621988
0.54421449 -0.22303976 0.67145193
0.62404442 -0.22935051 0.68713206
0.66515195 -0.22385439 0.6870659
0.70693207 -0.24005255 0.68663222
0.75890207 -0.22052102 0.68675995
0.81885827 -0.2274913 0.68641138
0.86582613 -0.23440695 0.68611383
0.92218411 -0.22555822 0.68604505
0.96230388 -0.22699545 0.685866
1.0060272 -0.22893038 0.68566459
1.0815427 -0.23197396 0.68532205
1.0995455 -0.20717156 0.68566966
1.1587749 -0.20284346 0.68551373
1.2129469 -0.22214137 0.68498003
1.2742298 -0.22982685 0.6846143
1.3331956 -0.20694512 0.68477154
1.3694857 -0.21838699 0.68627352
1.4092455 -0.20833917 0.688582
1.463027 -0.21272655 0.68613863
1.5171976 -0.21754335 0.68377244
1.545547 -0.22421438 0.67368269
0.52632737 -0.17923984 0.67775983
0.55634475 -0.1731943 0.68104029
0.61136162 -0.17122582 0.68815857
0.67837763 -0.16937041 0.68793118
0.72403312 -0.16678122 0.68779844
0.77401495 -0.18051198 0.68737465
0.79854095 -0.16180398 0.68759459
0.8650552 -0.17449465 0.68712437
0.90677905 -0.18285984 0.68682259
0.97346985 -0.16889268 0.68680012
1.0187598 -0.17341875 0.68654913
1.0496564 -0.17687291 0.6863718
1.1141109 -0.16774575 0.68627644
1.1648597 -0.17344287 0.68598479
1.2122931 -0.17168824 0.68583119
1.2739968 -0.17328055 0.68633056
1.3175079 -0.16725272 0.69026232
1.3581163 -0.16000882 0.68718445
1.4104439 -0.16943875 0.6887731
1.4615678 -0.16463804 0.68842709
1.5157118 -0.16885801 0.67939097
1.5449134 -0.16182858 0.67877221
0.52876079 -0.12490947 0.67750144
0.56401038 -0.11904883 0.68355966
0.59758866 -0.12200192 0.68903965
0.65588844 -0.12804198 0.68871301
0.70290697 -0.11450113 0.68875933
0.7656194 -0.12079915 0.68841124
0.81419015 -0.1268875 0.68812138
0.85567749 -0.12333139 0.688021
0.96721792 -0.12729372 0.6875239
1.0208995 -0.12465997 0.68736082
1.0575088 -0.12671398 0.68718499
1.1199055 -0.11532598 0.6871357
1.1532938 -0.12297732 0.68687814
1.2126482 -0.11191861 0.68683499
1.2641815 -0.11766244 0.68860334
1.3179032 -0.12264318 0.68995267
1.3594604 -0.116165 0.68990111
1.4175957 -0.10749315 0.68726486
1.4561146 -0.11886905 0.68730706
1.5159868 -0.11583175 0.67708904
1.547609 -0.10956667 0.67289722
0.52945912 -0.081647679 0.68281162
0.55817485 -0.074066877 0.68383723
0.61343181 -0.069455303 0.68986231
0.66140413 -0.070622653 0.68965751
0.71754503 -0.075746089 0.68935454
0.76618946 -0.076148167 0.68915999
0.81553602 -0.080562815 0.68889523
0.86021698 -0.078174315 0.68876308
0.91539288 -0.070194021 0.68868423
0.96966851 -0.074907191 0.68839538
1.0071818 -0.070389144 0.6883266
1.0619566 -0.077085927 0.68800253
1.1142311 -0.066947006 0.68797129
1.1691737 -0.058461338 0.69085014
1.2141355 -0.06805598 0.69118774
1.2637161 -0.074513674 0.69093603
1.3107961 -0.072848484 0.69006151
1.3616616 -0.070990048 0.69070047
1.4117748 -0.066795647 0.68957692
1.461201 -0.060718589 0.68960297
1.5162152 -0.068995267 0.68307799
1.546898 -0.061215922 0.6664272
0.53211641 -0.042687826 0.67601132
0.55487692 -0.019142432 0.68491358
0.61178327 -0.025970858 0.69059998
0.65740108 -0.013204962 0.6906386
0.70576501 -0.017359314 0.690382
0.75955153 -0.021091798 0.6901117
0.8127805 -0.032469016 0.68971479
0.86424315 -0.022593189 0.68968225
0.93259788 -0.017985618 0.68949586
0.95789099 -0.02036819 0.68935812
1.0206357 -0.024663495 0.68904376
1.0687439 -0.014480235 0.69074911
1.1110404 -0.015691588 0.69343185
1.1592276 -0.016210001 0.69231993
1.2012409 -0.030940684 0.69118923
1.2627394 -0.021702135 0.69159859
1.3210959 -0.015441831 0.69147855
1.3633269 -0.020528572 0.6917215
1.413821 -0.022852872 0.69005793
1.4691525 -0.023580315 0.69050556
1.5118119 -0.02531755 0.685103
1.5480993 -0.016159801 0.67312813
0.52794206 0.013770383 0.68172193
0.55505311 0.031796128 0.68302184
0.61203527 0.025648743 0.69146717
0.67075908 0.019032812 0.69112921
0.70639563 0.027897758 0.69114083
0.77427661 0.026828637 0.69086069
0.81161475 0.02396808 0.6906684
0.86281717 0.019286403 0.69039214
0.92011166 0.025327768 0.69027245
0.96616912 0.034136835 0.69138944
1.0197529 0.030584242 0.6919418
1.0616214 0.030283857 0.69210267
1.1139394 0.028729554 0.69370908
1.1669697 0.034356415 0.69291109
1.2156721 0.024390411 0.69282007
1.2650284 0.033838268 0.69301534
1.3085599 0.028116725 0.69283283
1.370083 0.030981237 0.69092369
1.4098315 0.039794613 0.6922943
1.4582471 0.030653676 0.69093066
1.5145679 0.025603121 0.68903852
1.5470251 0.031875428 0.67948651
0.52976263 0.078115337 0.67234868
0.55073798 0.077812202 0.68916935
0.60639071 0.080715194 0.69241518
0.65016818 0.072090656 0.69210106
0.71552157 0.085031465 0.69206637
0.76959014 0.085608765 0.69186747
0.81297457 0.08320117 0.69165939
0.86650026 0.07913246 0.69138438
0.92304564 0.081291959 0.69464213
0.95563769 0.084039494 0.69456244
1.0102279 0.070638366 0.69489074
1.0598385 0.075550102 0.69272757
1.1226747 0.084788688 0.69419491
1.1529891 0.07942941 0.69528663
1.2164304 0.080197349 0.69349116
1.268993 0.081576414 0.69262356
1.3080573 0.078028999 0.69310105
1.3705906 0.079726934 0.69220018
1.4191072 0.087841019 0.69189918
1.4605767 0.077175014 0.69276243
1.5107533 0.076222159 0.68410385
1.5476536 0.087577745 0.67993665
0.53219485 0.13530378 0.67502284
0.55615962 0.12119802 0.68545276
0.61300623 0.12579596 0.69314778
0.65752149 0.12983318 0.69304383
0.71312487 0.12811051 0.69280016
0.76935744 0.11915919 0.69243258
0.81117475 0.1276785 0.69241434
0.86263454 0.13737522 0.69375467
0.91301274 0.12374255 0.69519252
0.95411289 0.12163417 0.6958887
1.0148795 0.12698704 0.6946739
1.0564309 0.12355344 0.69532937
1.1208334 0.12809004 0.69466561
1.158727 0.13420086 0.69314802
1.2142191 0.13082708 0.69297528
1.2645525 0.13291295 0.69380987
1.3126502 0.1224627 0.69325733
1.356522 0.12083647 0.69457203
1.4131879 0.12522778 0.69486481
1.4607397 0.13221043 0.69315821
1.5176651 0.13226093 0.68930519
1.5457311 0.12973572 0.67946768
0.52928782 0.17272428 0.6871286
0.55502629 0.1806877 0.68708295
0.61211908 0.18153024 0.68182212
0.66129208 0.17939311 0.68660569
0.7089411 0.18313113 0.68521714
0.76147556 0.17941265 0.68696225
0.80665123 0.18170929 0.68621212
0.85547459 0.18007046 0.68838465
0.91416454 0.18056814 0.68992531
0.96412635 0.17436059 0.69196582
1.0137298 0.17975047 0.68307412
1.0600901 0.17396058 0.6873399
1.1097496 0.17591101 0.68676984
1.1539069 0.17338659 0.68621057
1.2108493 0.17590523 0.68840408
1.2578343 0.17212839 0.69052511
1.3040179 0.17791988 0.68663949
1.3588463 0.17562218 0.6843403
1.4155644 0.17361277 0.6846596
1.4628981 0.17250159 0.68590468
1.519768 0.1716242 0.6797328
1.5478181 0.17502549 0.67575377
0.52929688 0.20223926 0.67705184
0.55904412 0.20318325 0.67407537
0.5917362 0.20154417 0.67623746
0.52271128 -0.30741814 0.70409507
0.54154789 -0.30397409 0.70849216
1.2219038 -0.29967678 0.69052088
1.2683284 -0.29713112 0.69038445
1.314324 -0.29925644 0.69017118
1.3596518 -0.29901832 0.69000018
1.4397039 -0.29771572 0.68971306
1.4676099 -0.30312687 0.68951434
1.5300531 -0.31281742 0.72319502
1.5463049 -0.31711698 0.72456461
0.52388871 -0.29186156 0.70333171
0.55791652 -0.27738515 0.69742572
0.61643684 -0.27518496 0.69326997
0.6668427 -0.27287561 0.69311428
0.71235764 -0.27550319 0.69251078
0.75797915 -0.27021152 0.69280726
0.81224263 -0.27046239 0.69259351
0.86039174 -0.26897117 0.69243276
0.91615736 -0.26834747 0.69184846
0.96938121 -0.2777952 0.69186372
1.0236899 -0.27896485 0.69163442
1.0582268 -0.27635416 0.69154489
1.1114484 -0.28130969 0.69125617
1.1626803 -0.27135396 0.69122583
1.2137368 -0.27455625 0.69097483
1.2681661 -0.26149729 0.69098443
1.3199378 -0.26382133 0.69074541
1.3553396 -0.27076238 0.69049203
1.4128357 -0.28621 0.69001031
0.5669117 -0.22185743 0.69435805
0.61645508 -0.21805717 0.69423079
0.6636008 -0.21676661 0.69407046
0.71539605 -0.2242789 0.69374412
0.76744771 -0.21482857 0.69370216
0.82045484 -0.21733685 0.69345528
0.86681449 -0.22718695 0.69311064
0.91801107 -0.22586574 0.69293529
0.97002125 -0.21359392 0.69294095
1.0228773 -0.21380129 0.69273347
1.0602533 -0.22822748 0.69234657
1.1135234 -0.22258571 0.69223583
1.1535758 -0.21311204 0.69224054
1.2235949 -0.22945674 0.69169533
1.2700791 -0.21874347 0.69169611
1.3067892 -0.21826845 0.69156229
1.3496385 -0.23979571 0.69103485
0.56030607 -0.17490304 0.69517326
0.61578715 -0.17969111 0.69487858
0.65102565 -0.17419271 0.69483495
0.72321141 -0.17615545 0.69452333
0.76501036 -0.18069351 0.69428575
0.80887568 -0.18138072 0.69410479
0.86257291 -0.16692303 0.69414055
0.91608489 -0.17280081 0.69383532
0.96776497 -0.17508975 0.69359726
1.0187982 -0.16809267 0.69351792
1.0640821 -0.16423315 0.69340795
1.1075498 -0.16993432 0.69314432
1.1663269 -0.17561059 0.69282192
1.1998271 -0.17230892 0.69274819
1.2553545 -0.16000472 0.6927408
1.3029126 -0.18886754 0.69207186
0.5672195 -0.12297752 0.69574493
0.61495543 -0.12571454 0.69578952
0.66530788 -0.11223814 0.69582182
0.71440065 -0.1228904 0.69545317
0.76684737 -0.12524022 0.69521123
0.83111382 -0.1254945 0.69495887
0.86387467 -0.12276541 0.69487822
0.90644884 -0.12671821 0.69464743
0.96864235 -0.11700527 0.69457072
1.0114807 -0.1229971 0.69430453
1.0637649 -0.11447851 0.69424611
1.1038986 -0.12054066 0.6939891
1.1644293 -0.1205498 0.69375533
1.214193 -0.13547592 0.69331223
0.58680451 -0.074065126 0.69676691
0.60965657 -0.080471762 0.69657093
0.6565547 -0.075762667 0.69646913
0.72646832 -0.089914516 0.69596124
0.75429165 -0.078360423 0.69604814
0.81672132 -0.069894955 0.69594949
0.86793232 -0.07698223 0.69563264
0.93057084 -0.071101695 0.6954897
0.95692778 -0.075624302 0.6953119
1.0099941 -0.079544812 0.69504112
1.0698128 -0.069453925 0.69497991
1.101578 -0.063893594 0.69495082
1.1457555 -0.086344279 0.69440269
0.57233906 -0.024214197 0.69766122
0.60720456 -0.033700928 0.69736701
0.66716778 -0.03590595 0.69709843
0.71779525 -0.029886704 0.69700426
0.76705182 -0.021626618 0.69695306
0.82528257 -0.0054407213 0.69700056
0.85865295 -0.03154337 0.69643253
0.9097023 -0.026873324 0.6963141
0.96137404 -0.014969779 0.69631493
1.0220664 -0.015972599 0.69606364
1.0628695 -0.030078653 0.69566894
0.56141102 0.022762757 0.69831383
0.61181617 0.033620991 0.69848144
0.66480303 0.0265953 0.69815874
0.71044767 0.03979817 0.69820464
0.76474833 0.022865789 0.69771022
0.80166411 0.030406987 0.69769454
0.85839987 0.027513221 0.69742686
0.92512727 0.030221554 0.69721484
0.96329033 0.0310752 0.69708192
1.0015543 0.015306437 0.69666892
0.56437767 0.059170317 0.69900739
0.61198187 0.081590503 0.69928753
0.68527734 0.068057671 0.69877702
0.71232414 0.081766322 0.69890314
0.75806713 0.054098643 0.69826132
0.81381297 0.069767699 0.69830954
0.86301851 0.080256924 0.69829607
0.90374911 0.07199017 0.69799989
0.58174133 0.11029904 0.69988716
0.61925328 0.12493265 0.69998837
0.65658414 0.12106741 0.69977933
0.70344937 0.13049379 0.69975692
0.76725745 0.1327979 0.69954932
0.80642366 0.13503805 0.69943583
0.85309577 0.11025047 0.69883889
0.5297569 0.18918522 0.71472031
0.55852461 0.18222886 0.70899683
0.61740148 0.17868796 0.70089972
0.65871799 0.17561735 0.70068854
0.71597993 0.16184482 0.70023584
0.76492679 0.16890623 0.70016569
0.79076028 0.16742553 0.70004112
1.5341743 0.17513317 0.72136033
1.5491616 0.1683028 0.72747916
0.53385246 0.20375882 0.72979122
0.54572093 0.20350556 0.73210007
0.52330399 -0.30516616 0.75136924
1.526733 -0.31662518 0.75991064
1.5459175 -0.30561462 0.78498352
0.52635801 -0.28821525 0.7663517
0.54120052 -0.2926009 0.75907147
0.52947402 0.19398521 0.75529319
0.54487872 0.18180862 0.75307602
1.5344446 0.17510068 0.78898263
1.5482619 0.17429316 0.77686352
0.54650342 0.20291872 0.76629442
0.52824736 -0.30790186 0.81999385
1.5300579 -0.31723353 0.81644261
1.5459716 -0.32267499 0.80409932
0.53901398 -0.28800693 0.82079905
0.54256141 -0.29660183 0.81931967
0.52966309 0.18640116 0.83350009
0.54650497 0.18424918 0.81715661
1.5347712 0.17261221 0.8401503
1.5459629 0.16609362 0.82753241
0.54624391 0.20085697 0.82524318
0.52421296 -0.30821121 0.87033349
0.53979933 -0.31055054 0.87267041
1.5300132 -0.32371566 0.86221528
1.5455841 -0.32063863 0.87064993
0.53083992 -0.28879789 0.87685257
0.54277825 -0.29981032 0.88532746
0.53179431 0.18299331 0.87356693
0.54014266 0.17926151 0.89237291
1.5346538 0.16160978 0.89754802
1.5525349 0.16453591 0.86031759
0.53268862 0.20091933 0.88308614
0.54910612 0.20097704 0.87941623
0.53123486 -0.31095353 0.90597934
1.5292836 -0.32255062 0.92123312
1.5448492 -0.31530121 0.90709597
0.52124965 -0.30302829 0.93024993
0.54244947 -0.29194012 0.89534998
1.5350921 0.1754729 0.94285959
1.5496126 0.17255056 0.92705584
0.53256452 0.20018083 0.92988861
0.54703164 0.19918619 0.92261589
0.52887368 -0.31192869 0.96675086
0.54203153 -0.31092453 0.96173638
1.5309237 -0.32679114 0.97665358
1.5468109 -0.3223128 0.96441066
0.52501655 -0.29488906 0.95755833
0.54233527 -0.29692325 0.95952952
0.53028536 0.18648987 0.98263311
0.54430795 0.17986126 0.97354996
1.5351453 0.16878173 0.98455095
1.5548742 0.16891679 0.98191428
0.53041708 0.19568378 0.97448128
0.54829204 0.1995375 0.96624672
0.52779567 -0.31245643 1.0013827
1.5290226 -0.32147616 1.0102129
1.5442909 -0.31926289 1.0111804
0.52297831 -0.29085416 1.0039308
0.54129171 -0.29158986 1.0322679
0.53039908 0.18156402 1.0312637
0.55200934 0.17985822 1.027194
1.5352726 0.16470854 1.0327679
1.5495281 0.16608499 1.0300109
0.53060603 0.1973276 1.0127679
0.55043185 0.19814958 1.0468068
0.52405775 -0.31324586 1.0550346
1.5333433 -0.31030035 1.0783347
1.5471158 -0.32073122 1.0549461
0.52889705 -0.2946808 1.057448
0.54349065 -0.30058226 1.0596857
0.54437649 0.1801326 1.0760232
1.5462979 0.16950253 1.0720646
0.53344584 0.19828303 1.0571791
0.54338753 0.1965823 1.0721258
0.52625084 -0.31436434 1.1150105
0.62686265 -0.31067729 1.1197946
0.66567445 -0.31146353 1.1248341
0.70925272 -0.31216967 1.1199446
0.807868 -0.31321773 1.1200072
0.86465454 -0.31268913 1.1214896
0.90943789 -0.31497017 1.1185554
0.96594048 -0.31698415 1.130267
1.015638 -0.31599006 1.1172255
1.0722719 -0.31579435 1.1279943
1.1270581 -0.31487247 1.1261674
1.1758333 -0.31729519 1.1206714
1.2074908 -0.3156268 1.119168
1.2663801 -0.31459385 1.1252688
1.315817 -0.30928168 1.1325787
1.3700258 -0.31647354 1.1193379
1.4155968 -0.31941652 1.1167006
1.464883 -0.31524935 1.1230874
1.5255327 -0.32150039 1.1167061
1.545825 -0.32151788 1.117548
0.52478981 -0.29012388 1.1103308
0.558025 -0.29494971 1.1244874
0.61366379 -0.2929225 1.1240865
0.64691532 -0.28741318 1.130565
0.71824348 -0.29162753 1.1249593
0.77140093 -0.28921396 1.1238271
0.8133986 -0.2896055 1.125174
0.87535024 -0.27919611 1.1323997
0.91673625 -0.29290295 1.1265932
0.95606899 -0.29723397 1.1266799
1.0149629 -0.28640801 1.1280532
1.0658354 -0.28967986 1.1319685
1.1200264 -0.28648832 1.1309577
1.1608146 -0.28423312 1.1288804
1.2121387 -0.29310068 1.1297065
1.260396 -0.28813371 1.1272557
1.3176333 -0.28694746 1.1325209
1.3585688 -0.28484476 1.1305791
1.4134613 -0.2767849 1.1342733
1.4601054 -0.28562596 1.1313736
1.5153613 -0.28424722 1.1299415
1.5445291 -0.26740932 1.12386
0.52582395 -0.22351727 1.1245375
0.54785132 -0.23350625 1.1311629
0.61947215 -0.22716013 1.1346551
0.67109835 -0.23640619 1.1343005
0.70720959 -0.22678588 1.1343228
0.76980436 -0.23033446 1.1340214
0.81313372 -0.24252738 1.1336491
0.86102498 -0.23975016 1.1335111
0.9178288 -0.23534578 1.1333659
0.96385312 -0.23578183 1.135474
1.0176234 -0.22611216 1.1368884
1.062097 -0.23403758 1.1367004
1.1101909 -0.2304652 1.137157
1.1604028 -0.22937977 1.1348231
1.2124003 -0.23414657 1.1371629
1.2657913 -0.22456011 1.1343206
1.3169107 -0.2338315 1.1362287
1.3629283 -0.22163393 1.1348267
1.4166292 -0.22834995 1.1345677
1.4646659 -0.23226829 1.1344336
1.5177402 -0.22924837 1.1298685
1.5444227 -0.2229436 1.1180419
0.52653551 -0.19114214 1.1252096
0.55739629 -0.18993795 1.1317006
0.62805247 -0.17974599 1.1354194
0.65665245 -0.18086761 1.1352901
0.70328629 -0.18247409 1.1350832
0.76747215 -0.18786539 1.1347448
0.81706214 -0.18751882 1.1345593
0.84563696 -0.18738867 1.134451
0.92055416 -0.18917257 1.1341319
0.95677066 -0.1819974 1.1390268
1.0055639 -0.18769208 1.1386443
1.0533739 -0.17451397 1.1377354
1.1138887 -0.17422645 1.1365036
1.1676577 -0.1795653 1.1359193
1.2113887 -0.18073957 1.1362084
1.2585833 -0.18074548 1.1357205
1.3162096 -0.18645491 1.1381539
1.3642297 -0.17553332 1.1354003
1.4097866 -0.18184645 1.1368179
1.4658722 -0.17450812 1.1355494
1.5217929 -0.17677984 1.1323928
1.5468279 -0.17159356 1.1210804
0.52981281 -0.13675562 1.1239946
0.55118322 -0.13478546 1.1341628
0.62255299 -0.12844193 1.1363035
0.65842199 -0.14133982 1.1359481
0.71860456 -0.13764815 1.135778
0.76619494 -0.14022064 1.135551
0.81266749 -0.12836026 1.1355712
0.86586535 -0.13156186 1.1387517
0.91195166 -0.14177506 1.1377139
0.95793736 -0.13534056 1.1380199
1.0189764 -0.13992187 1.1368734
1.0619688 -0.12396383 1.1367995
1.1136018 -0.13150676 1.1371893
1.164772 -0.12946735 1.1379457
1.2100525 -0.12516062 1.1379128
1.2631196 -0.13460314 1.1352558
1.3114189 -0.11756335 1.1369544
1.3642281 -0.13495132 1.1363887
1.419333 -0.12710358 1.1363078
1.4617853 -0.12468439 1.1362543
1.5155208 -0.13058275 1.1332272
1.5446444 -0.13299756 1.1274569
0.52949166 -0.09254171 1.1217452
0.55359066 -0.088861004 1.1300564
0.61434484 -0.078712322 1.1371715
0.65498722 -0.091337159 1.1368026
0.71138191 -0.087484352 1.1366497
0.76954627 -0.080142006 1.1397237
0.80693722 -0.090577178 1.1403564
0.86430395 -0.078620136 1.1379281
0.912714 -0.088144161 1.1384411
0.96096432 -0.085252538 1.13859
1.0178431 -0.082310073 1.1389934
1.0602813 -0.076637469 1.1400714
1.1032506 -0.082693368 1.1383924
1.1601348 -0.079241171 1.1396421
1.2113467 -0.085161015 1.1388862
1.2649574 -0.084192403 1.1392752
1.3038511 -0.082210302 1.1378908
1.3590894 -0.078010246 1.1393119
1.4155374 -0.075988792 1.1375642
1.4644576 -0.076869592 1.1399406
1.5169832 -0.086880244 1.1310862
1.5460515 -0.078937039 1.1190636
0.52828121 -0.036296599 1.1292585
0.55296743 -0.027244156 1.126655
0.61685538 -0.03430371 1.1379087
0.67896175 -0.03420829 1.1393906
0.72272193 -0.033248462 1.1425213
0.75406075 -0.03711227 1.1405072
0.81064522 -0.033161305 1.1408491
0.85475874 -0.026498703 1.1440012
0.91104436 -0.033368871 1.14072
0.95412982 -0.035414003 1.1407161
1.0057666 -0.038075507 1.1403571
1.0678707 -0.033542417 1.1367097
1.1138281 -0.038236 1.1382174
1.1616102 -0.032394111 1.1377143
1.2117177 -0.034508351 1.1393617
1.2633054 -0.040926702 1.1378818
1.3046498 -0.035870921 1.1381758
1.3673829 -0.028388612 1.137863
1.414039 -0.024577064 1.1374967
1.4642187 -0.033898827 1.1369377
1.5172452 -0.030519195 1.1320136
1.5454732 -0.036194082 1.1220578
0.53179872 0.018729419 1.1289346
0.56615269 0.014792795 1.1352314
0.60726845 0.021538347 1.139573
0.65877342 0.0091698561 1.1427777
0.70533001 0.0079370812 1.1417174
0.75738478 0.018172722 1.1411972
0.81096244 0.022157654 1.1411668
0.86232877 0.019697092 1.1418008
0.91153979 0.0083395224 1.1415015
0.96408033 0.018534871 1.1405841
1.0128267 0.016417649 1.1414669
1.0653656 0.015917262 1.1394792
1.1062555 0.017956726 1.1400256
1.1604187 0.021303819 1.1384656
1.20793 0.02456384 1.1425139
1.2671565 0.013063965 1.1414871
1.3082868 0.020317791 1.1405363
1.359831 0.014160743 1.1392957
1.4103051 0.017899066 1.1386722
1.4670696 0.027522845 1.1399661
1.5199453 0.018002357 1.1348
1.5505936 0.029236982 1.1225301
0.53141618 0.063956559 1.132213
0.56018281 0.060207658 1.1389208
0.61361456 0.071334444 1.1434504
0.66560793 0.068724655 1.1444569
0.70929527 0.056432903 1.142205
0.757653 0.072378874 1.1422865
0.8025353 0.063297302 1.1388335
0.87340653 0.063536294 1.1424952
0.9056828 0.058438044 1.1408553
0.95843375 0.060358994 1.1410488
1.0099059 0.068293326 1.1415567
1.0676745 0.071286619 1.141384
1.107129 0.064405948 1.1414984
1.1653455 0.072619811 1.1408002
1.210135 0.069697954 1.1419539
1.2664893 0.070640475 1.1381489
1.3116318 0.069642633 1.1409881
1.3654896 0.062767416 1.1400912
1.4092871 0.062647521 1.1396556
1.4571477 0.067398742 1.1389554
1.5182536 0.067957878 1.134957
1.5471222 0.063897461 1.120796
0.52986109 0.097389556 1.1276407
0.55887079 0.11209983 1.1383358
0.60687089 0.11966343 1.1425025
0.66532373 0.10987253 1.1442741
0.70774591 0.11041985 1.1427437
0.75941455 0.113025 1.1436583
0.82006991 0.11509888 1.1458286
0.87021971 0.12103753 1.1426703
0.91770267 0.12189858 1.142241
0.96173298 0.11488824 1.1430997
1.0011563 0.1203609 1.1418929
1.0596187 0.11913205 1.1410733
1.1130365 0.11908321 1.1423255
1.1550367 0.12116933 1.1425738
1.2116961 0.11161079 1.1418192
1.2636464 0.11302263 1.1394186
1.3092998 0.1163366 1.1421919
1.3664713 0.11951753 1.1428939
1.4082114 0.1196955 1.1401957
1.4648366 0.11835861 1.1415027
1.5194731 0.12332997 1.1377397
1.5520701 0.12303646 1.1302907
0.53054833 0.16373993 1.1331563
0.55643475 0.16896217 1.1350309
0.60832334 0.16252483 1.1370025
0.66224325 0.17262907 1.1373596
0.72049427 0.1670845 1.1350061
0.75841188 0.16881794 1.1369661
0.80472183 0.1716682 1.1355578
0.85890245 0.17018989 1.1370621
0.91085696 0.16767643 1.1343477
0.95503664 0.16879596 1.1351702
1.0154226 0.16947946 1.1332332
1.066154 0.17112991 1.1311253
1.1087811 0.16370255 1.1385051
1.152818 0.172526 1.1276221
1.2082341 0.17246754 1.1317798
1.2578567 0.16145238 1.1344838
1.3121226 0.16084674 1.1309472
1.3602171 0.16752993 1.1328777
1.4090887 0.16232863 1.133036
1.4639357 0.16176546 1.1304147
1.5175472 0.1645539 1.1347675
1.5451761 0.16957444 1.1283505
0.53248787 0.19674221 1.1239424
0.5503186 0.19503392 1.1293126
0.61477995 0.1934973 1.1318188
0.65985453 0.19271831 1.1296628
0.75160122 0.19106576 1.1292779
0.52711606 -0.31538162 1.1748174
1.5270654 -0.32056162 1.1611401
1.5475944 -0.31730962 1.1600227
0.53081322 -0.29551655 1.1632996
0.55019093 -0.28506908 1.1423157
0.62059093 -0.28106689 1.1406236
0.64752686 -0.27676544 1.1405922
0.71019399 -0.28161982 1.1398791
0.75745285 -0.27827933 1.1401423
0.80183935 -0.2886737 1.139796
0.86196399 -0.29023272 1.1395378
0.9142313 -0.28678393 1.139394
0.97043931 -0.27106929 1.1394414
1.0049201 -0.2928713 1.1389415
0.5712148 -0.2477957 1.141374
0.61848283 -0.22757411 1.1415313
0.66480875 -0.23912075 1.1411585
0.7133919 -0.23634744 1.1410176
0.76914752 -0.22786185 1.140945
0.82655871 -0.24321425 1.1404653
0.86453509 -0.22035357 1.1407032
0.92066073 -0.23581816 1.1402265
0.95415795 -0.24203931 1.1399925
0.56758678 -0.18349582 1.1424694
0.61117291 -0.19437286 1.1421181
0.66791034 -0.18300976 1.1420902
0.71282637 -0.18575157 1.1418707
0.76277328 -0.17085885 1.1419284
0.81546438 -0.17428812 1.1416674
0.85438955 -0.20100653 1.1410677
0.91484797 -0.20671648 1.1407384
0.57096469 -0.14306927 1.1431361
0.61621976 -0.13898689 1.1430303
0.64558268 -0.13664323 1.1429561
0.71126986 -0.13188675 1.1427827
0.77062273 -0.1283882 1.1426125
0.7949748 -0.12631205 1.1425533
0.85372424 -0.15708119 1.1418091
0.55555749 -0.087678105 1.1441272
0.60972106 -0.083567522 1.1439873
0.66231704 -0.084721714 1.143765
0.71675265 -0.08584775 1.1435357
0.75507009 -0.10318437 1.1430962
0.56774724 -0.032444336 1.1450092
0.61214912 -0.034990732 1.1447948
0.65598464 -0.043414593 1.144484
0.56106734 0.0063174982 1.145687
0.61125612 0.00090808421 1.145402
0.54807568 0.04620982 1.1464078
0.53094602 0.1804297 1.1675307
0.54787362 0.17698617 1.1642635
1.5472664 0.17164846 1.1686524
0.53289771 0.19649029 1.1648107
0.55242252 0.1938237 1.1724401
