# .PCD v0.7 - Point Cloud Data file format
VERSION 0.7
FIELDS x y z
SIZE 4 4 4
TYPE F F F
COUNT 1 1 1
WIDTH 205
HEIGHT 1
VIEWPOINT 0 0 0 1 0 0 0
POINTS 205
DATA ascii
1.448826 -0.32177895 0.14810078
1.4739878 -0.32986343 0.12483174
1.5107032 -0.32749143 0.12081956
0.49744585 -0.28804576 0.12748086
0.50998628 -0.28924686 0.12567259
1.4667645 -0.26604781 0.13308164
1.5086036 -0.26929042 0.11926799
0.4834196 -0.22187313 0.12462299
0.51110816 -0.2229766 0.12572406
0.52085948 0.1978596 0.1254417
1.4825091 0.15957631 0.13572045
1.5191953 0.16047378 0.11927526
0.59263599 0.22063284 0.14937195
1.4846133 0.22231533 0.13433293
1.5230445 0.22105771 0.12108163
1.4416957 -0.31276768 0.16891178
1.455681 -0.31442353 0.18212084
1.5297098 -0.30793786 0.16335289
1.5715144 -0.31009203 0.16069362
0.48423114 -0.27663621 0.15373652
0.51459759 -0.2827951 0.15614261
0.57252192 -0.26152015 0.18745582
1.4419873 -0.28419259 0.17027922
1.4591521 -0.27562642 0.17624584
1.5231746 -0.27020654 0.17276412
1.5758362 -0.28505617 0.19463015
0.48125884 -0.22600481 0.1661289
0.51970798 -0.22781388 0.16623333
0.57114285 -0.2376451 0.18194695
0.52238667 0.19781776 0.16023053
1.4692069 0.17692229 0.17400403
1.5215421 0.15750247 0.16566794
1.5679312 0.17287323 0.18774155
1.6114087 0.17288429 0.19687159
0.5483228 0.20878366 0.17451924
0.57471895 0.21141121 0.17794508
0.6064831 0.21409824 0.18722194
1.4672545 0.21049204 0.17004852
1.535203 0.21214853 0.15899727
1.5540282 0.21022122 0.18252042
0.59566623 0.25062555 0.18776146
0.61048359 0.25133294 0.19070944
1.3911138 -0.3018873 0.24076369
1.4336351 -0.30161601 0.2411128
1.4591461 -0.30525452 0.22060497
0.49484032 -0.25298923 0.23339301
0.52571034 -0.25738853 0.23364776
0.57507962 -0.25875682 0.23405336
0.62566572 -0.25981343 0.23446882
0.67585379 -0.26082689 0.234881
0.72914654 -0.25806779 0.23778543
0.77313429 -0.25800657 0.23928261
0.82340622 -0.26048237 0.23936816
0.87426883 -0.26300293 0.2394402
0.92270195 -0.26446968 0.2400745
0.97205693 -0.26707658 0.24017993
1.0253273 -0.26950812 0.24040517
1.0760896 -0.27198747 0.24061315
1.1254947 -0.27359587 0.2410264
1.174099 -0.27502009 0.24162859
1.2244478 -0.27872172 0.24133627
1.2776798 -0.28058967 0.24191213
1.3246895 -0.28272891 0.24214387
1.3754125 -0.28456101 0.24245398
1.4294523 -0.28548869 0.24290533
1.4606359 -0.28120381 0.23092234
0.47766551 -0.23538099 0.22779286
0.52612931 -0.24300681 0.23783673
0.57318848 -0.24426518 0.2403757
0.62382853 -0.2460538 0.24108724
0.67281783 -0.24791268 0.24183123
0.71011257 -0.24940291 0.24239647
1.4615539 -0.22511449 0.24488731
0.47537977 -0.17389745 0.23320772
1.4613588 -0.19710787 0.24522737
0.47624415 -0.12443893 0.23319875
0.47723159 -0.075088009 0.23319092
0.47841981 -0.034945533 0.23318768
0.47925085 0.029114617 0.23317382
0.4734562 0.080328241 0.23849036
0.474363 0.1250387 0.23931085
0.47692615 0.16725025 0.2389698
1.4809412 0.1884495 0.21553349
1.5009147 0.17823315 0.21436107
0.54118526 0.2152378 0.23849562
0.57432055 0.21713141 0.2390178
0.62340707 0.21557117 0.23926753
0.67381346 0.21374044 0.23936428
0.71960765 0.21168323 0.24179289
0.76125944 0.20539722 0.24819577
1.4806342 0.20000845 0.20799053
0.7364046 -0.25049877 0.25403973
0.77493525 -0.25196266 0.25486305
0.82590467 -0.25372022 0.2555992
0.87596405 -0.25522465 0.25623778
0.92520696 -0.25681993 0.25658864
0.97366369 -0.2583611 0.2571038
1.0252779 -0.25957212 0.25779045
1.0743679 -0.2609742 0.2582154
1.1227081 -0.26230872 0.25853813
1.1756523 -0.2639094 0.25896633
1.226452 -0.26513821 0.25944352
1.2791802 -0.26581734 0.26039726
1.3263426 -0.26808774 0.26015452
1.3718477 -0.26939785 0.26047131
1.4213972 -0.27084643 0.26082781
1.4554957 -0.26528135 0.25782526
0.54584688 -0.24244528 0.25065628
0.57967335 -0.22671114 0.25594479
0.62359869 -0.22650784 0.25650525
0.67357349 -0.22798227 0.25686306
0.72131681 -0.22724813 0.25749856
0.77349269 -0.22501665 0.25830534
0.82563633 -0.22508076 0.25873324
0.87746334 -0.22503789 0.25915849
0.92735404 -0.22492349 0.25956792
0.97275627 -0.22525755 0.25994056
1.0233985 -0.22495145 0.26035607
1.0736473 -0.22498114 0.26076838
1.1216655 -0.22485505 0.26116234
1.174929 -0.22536343 0.2615996
1.2249564 -0.22457625 0.26200986
1.2797275 -0.22514208 0.26245952
1.3296615 -0.22540927 0.26286936
1.3725361 -0.2245629 0.26322094
1.4184351 -0.22485027 0.26359767
1.4568907 -0.22501577 0.25796878
0.5820325 -0.1753922 0.25671822
0.62313128 -0.17498156 0.25705516
0.67345405 -0.17501834 0.25746819
0.72239381 -0.17502159 0.25786987
0.7733416 -0.17502464 0.25828797
0.82555717 -0.17499632 0.2587164
0.87744695 -0.17499031 0.25914228
0.92709422 -0.17498411 0.25954959
0.97269535 -0.17530188 0.25992393
1.0233982 -0.17481424 0.26033983
1.0729954 -0.17641635 0.26074731
1.1211088 -0.17873597 0.26114285
1.1744268 -0.18197863 0.26158145
1.2242713 -0.18398866 0.26199111
1.2787948 -0.18725646 0.26243961
1.3289804 -0.19026427 0.2628524
1.3715533 -0.19166422 0.26320225
1.4169911 -0.19434735 0.26357597
1.4578609 -0.19690944 0.25806871
0.46996158 -0.12356567 0.27357855
0.58386087 -0.12497556 0.25671688
0.62416154 -0.12555769 0.2570478
0.67325157 -0.12494513 0.25745046
0.72221965 -0.1250845 0.25785229
0.77324057 -0.12504439 0.25827089
0.82028371 -0.13209203 0.25865924
0.87613416 -0.14097793 0.25912043
0.92569661 -0.14364533 0.25952801
0.97117805 -0.14605069 0.25990197
1.0116884 -0.14803199 0.26023504
0.47201058 -0.075024039 0.27423695
0.58555418 -0.07511016 0.2567147
0.62501466 -0.075024739 0.25703833
0.67313939 -0.074831277 0.25743333
0.72207338 -0.075031981 0.25783488
0.77313286 -0.075077772 0.25825396
0.80705982 -0.075124361 0.25853229
0.4741213 -0.025037754 0.27469313
0.58715463 -0.031456899 0.25671372
0.62519926 -0.029086277 0.25702506
0.67350149 -0.026466914 0.25742063
0.72205108 -0.024988595 0.25781858
0.77296996 -0.025119221 0.25823641
0.80928904 -0.022856029 0.25853372
0.47624207 0.025121061 0.27515399
0.58793503 0.036356106 0.25669816
0.62270349 0.040100478 0.25698218
0.66909707 0.044634175 0.25736147
0.72029984 0.022995483 0.25778863
0.77617466 0.0035630537 0.25825343
0.81072646 0.0056012762 0.25853631
0.47719052 0.076306 0.27269891
0.58871353 0.074962303 0.25669199
0.62458301 0.074969836 0.25698632
0.67279655 0.075013064 0.25738201
0.72145706 0.075483806 0.25778115
0.77177083 0.079395056 0.25819275
0.81006497 0.083352648 0.25850573
0.47876772 0.12509295 0.27195278
0.59025174 0.12457348 0.25668874
0.62452614 0.12502566 0.25696993
0.67274344 0.12502527 0.25736547
0.72150731 0.12506039 0.25776559
0.77258337 0.12490781 0.25818476
0.81137246 0.12664153 0.25850251
0.480887 0.16852966 0.272854
0.5908739 0.17396028 0.25667778
0.62441003 0.17502862 0.25695273
0.67433918 0.17551208 0.25736225
0.72339547 0.17430884 0.25776517
0.77250749 0.17504793 0.25816786
0.81351489 0.17483693 0.25850451
0.58697826 0.21055798 0.25420403
0.62373006 0.20879881 0.25494748
0.67376763 0.20737377 0.25505787
0.7246303 0.20597968 0.25494823
0.77337444 0.20426644 0.25531894
0.81159741 0.20257877 0.25757882
